# 3D point list with one line of data per point:
#   POINT3D_ID, X, Y, Z, R, G, B, ERROR, TRACK[] as (IMAGE_ID, POINT2D_IDX)
# Number of points: 370, mean track length: 5.1437521754263837
1599 0.83297898022049222 2.0867310856854373 2.1827465815930354 221 207 172 2.086671050988643 46 1638 98 1304 9 1629 55 1569 7 1387
1185 -0.94763346342289245 1.5271919944203129 1.3303456728095797 0 0 0 1.5995773362623882 36 1051 51 1240 90 1174 98 1228 83 1225 91 1254 33 835 2 783
6272 0.31458231782686019 0.69994143798126507 1.9126587151695573 154 135 50 0.53727809917938663 2 767 37 435 38 387 20 509
5899 -0.14389122551305256 1.6763714474019391 2.0303583441035293 252 196 54 0.0682750861054119 8 450 73 411 35 362
812 1.0397160262752387 1.3696176234077064 1.595299688516949 0 0 0 1.3703369721782974 17 1499 41 1444 51 1244 30 1122 90 1176 83 1229 91 1290
1726 0.056899598160410632 2.6294501943240527 1.5709367888614139 88 98 98 0.82255220162138443 55 1552 7 1376 94 1284 40 1291 24 1209 93 1170 18 1242 70 980 23 1167
6440 0.19178688261320223 1.8262497511549303 2.7572940053635318 108 75 63 0.50413583078624613 99 587 75 539 89 415
2004 0.11874565881714533 1.1325978816724411 1.7371454855518709 5 6 7 0.12177369451119201 87 943 94 816 40 837
1469 1.0993497567047421 2.2814560509277366 2.0658599664134463 98 70 61 0.60972704931304778 98 703 91 997 9 1445
6183 0.42655401004302079 1.574924051756001 3.0891435522361368 0 0 0 1.4151006752774489 69 964 63 865
1096 0.060748916711132389 2.6717897862833908 1.5958623738609761 30 23 23 1.9125670601790121 36 1150 30 1168 90 1235 98 1294 83 1268 55 1551 7 1375 94 1285 40 1292 26 1138 60 1164 24 1210 15 1122 77 823 58 820 13 1072
1231 0.40950115883750354 2.4857713555022216 1.7929307494732558 196 184 152 0.20763919329478897 90 422 98 709 83 446 91 710
6318 0.30377925034952913 0.75925687455018176 2.0347398061536932 0 0 0 0.10950024514421719 21 1078 1 741
5945 -0.060055965597102218 1.1719899592336664 1.753549483015638 103 64 8 0.068528563999165806 8 654 73 605 35 515
858 -0.53275784835402218 2.8929620728959762 1.2055877497095677 130 87 63 0.25429239402019893 95 980 51 840 36 734 83 498 98 545 46 648
1772 -0.55433984017422844 2.5836117616230623 1.3051430083654456 1 1 1 0.99256082771912635 7 765 87 199 18 123
2050 0.67040676356329632 2.3133913923879477 2.0470634411523498 232 213 171 0.041102319258519475 87 1102 94 978 40 984
1515 0.25022039024516896 0.70072980710428978 1.8706409572138847 0 0 0 0.22358200793449176 90 954 46 1426 40 1074
6229 -0.81198312778929338 2.3063367071058054 1.3615794162965555 115 98 28 0.54913280491869743 62 271 74 250 37 227 1 550
1142 0.36446749501433601 1.8269095412243697 1.8557311148405362 115 95 25 0.19294079167492759 51 85 90 589 83 582
1628 -0.60681303261953723 1.625670213326553 1.1917618144333546 255 226 77 0.15537700395048284 41 608 55 984 7 834
1214 0.98050312128133532 2.358979036571716 1.8680325513214808 110 80 69 0.16795908205721155 90 408 98 500 83 473 79 218
6301 -0.96741758597939465 1.9157983640537759 1.4594626590394617 121 101 28 0.066645857933597577 62 79 74 65 1 70
5928 -0.72266461575971697 2.7640805722033122 1.4834228695772171 114 114 101 0.057187895415926969 8 559 73 507 35 442
841 0.98597680282498601 2.3368398600270117 1.9070993889738186 32 19 16 0.27567444886919756 17 437 51 442 98 488 83 701 91 733 46 623 9 935 55 466 18 630 49 956 13 695 3 729 79 433
1755 1.0905279027419654 1.2738024471488274 1.6496144931102823 254 249 144 0.40621104659375762 7 977 64 982 26 797
2033 0.50826128521184233 2.2337600559193347 2.1775091394318209 231 211 169 0.0842926026618563 87 1047 94 917 40 929
1498 0.57791308988311541 0.96088910910613168 2.1379431159410403 125 64 8 0.32228629788548324 91 533 46 662 9 706 87 480 94 373 40 395 24 374 93 378 70 296
6212 -0.99860090419429604 1.9061963407668865 1.5107229829098923 111 1 1 0.19815163367959296 62 258 74 67 37 55 1 72 38 185 20 57
1125 -0.43575259539668038 2.53264486573618 1.4128460232506768 29 26 8 0.11896893202015928 51 447 90 346 98 268 83 216
1243 0.48654044074797842 2.4557908797136179 1.8554865301864343 215 199 162 0.17728311139225572 90 912 98 959 83 940
6330 0.26869919793534119 0.96331787845005667 1.944856209324803 153 88 12 0.12685641964906638 23 117 99 85 75 80
5957 -0.52708719202431153 1.6628717088826888 1.671761094128106 171 106 21 0.16460226473111816 8 686 73 641 35 567
870 -0.18724716732510052 1.8591032510100474 1.585790276501416 222 178 54 0.27022050614223458 17 1421 51 1076 30 967 90 1001 98 1029 83 1001 91 1048 46 1467 9 1279 55 1465 7 1280 64 1244 87 1322 94 1193 40 1185 79 254
1784 -0.37018269729643832 1.6863390193062655 1.2415978585285097 253 228 61 0.15461486532440991 7 166 87 474 94 359 40 372 26 131 60 163
2062 1.1301303843550223 2.0161091047544897 2.4410906908509622 235 219 180 0.22161553565219663 87 1144 94 1017 40 1023 24 956 15 891
1527 -0.74240312504852379 2.8525176259260827 1.2729245352244116 125 127 118 1.7630508585831259 29 1244 97 1358 17 1571 95 1471 41 1561 51 1308 36 1163 30 1176 90 1243 46 1635 98 1299 83 1274 91 1323 9 1623 55 1565 7 1381 64 1310 82 1093
6241 0.27290548518919511 1.3570235494269751 1.375335872924168 240 207 69 0.37029020583580563 62 363 74 338 37 307 1 618
1154 -0.58251589493114908 2.5789925871964656 1.3451224951002694 58 64 85 0.31050127916392289 30 706 90 882 83 661 91 679 9 828 79 532
1598 0.74655471136223017 1.1127766099835394 1.897065974183429 204 135 50 0.38789584694792711 9 1624 13 1081
1184 -0.29608498639894926 2.7334123420650496 1.3745383251221777 71 49 40 0.59768968554855206 83 1198 77 726 58 708
5898 -0.11587665539707556 1.6518713320843137 2.025975351615704 34 30 34 0.045488910538770667 8 447 73 408 35 356
811 -0.3974581548771185 2.7703042255807335 1.3323475483835421 26 19 16 0.24528716175880608 29 1110 41 1432 46 1410 33 800 48 673
1725 -0.58427540658070376 2.4278563626619882 1.2791083911086492 22 29 39 1.2333383911389395 46 1625 55 1560 7 1374 26 1137 60 1163
2003 0.43961081998277851 0.77514041801989741 2.0696405541207588 0 0 0 1.1305500558109793 87 933 94 815 24 1015 40 832 93 1007 18 1089 70 836 23 895
1468 -0.041426528627452421 2.6818464594402531 1.5056815220611526 84 93 94 0.29494936506631042 17 1366 91 990 46 1406 9 1205 9 1410 55 1345 41 1186 7 1131 87 866 26 914 60 916 53 829 82 813 5 955 34 728 5 783 78 386 88 609 68 580 59 741 44 482 92 520
6182 1.2537243542018999 2.2712226798763511 2.12825614017687 232 213 170 0.62002127382015926 52 1025 69 961 63 863
1095 -0.63986146475290029 1.7532887172534064 1.368805557906305 22 17 6 2.186343808206427 36 1146 30 1162 90 1229 98 1283 83 1256 91 1297
1242 1.2948465362716208 2.1840575968913978 2.0891150838684096 232 218 181 0.75710625752360761 90 709 98 943 83 934 27 331
5956 -0.17318332589750027 1.5444319770800139 1.9718878547267895 252 191 52 0.31836515616929989 8 843 73 639 35 573
869 -0.38953506252610393 1.7064265949886703 1.2195936980950888 24 27 39 0.12374320922969598 41 1259 51 1050 30 776 90 990
1783 0.30305155905372261 0.94096464210423947 1.6650649479355872 8 8 9 0.20036203505084332 7 17 87 455 94 656 40 651
2061 0.94470361232369249 2.1820591935786222 2.243984811670543 235 218 177 0.07645534406025277 87 1139 94 1013 40 1016
6240 0.39999855636489584 1.0047228743206564 1.6854612077970141 67 60 52 0.048152198598156136 62 355 74 330 37 297 38 257
1153 0.56857764403149802 2.1055227199315629 2.3163149397663516 232 213 173 0.58365455785452225 30 612 90 850 98 838 83 818 91 878 46 1288 9 1337 55 1235 7 1007 87 1027 94 905 40 918 93 817 18 807 70 632 42 492
1597 -0.75279448549403782 1.9882627317345074 1.1660829134595803 104 91 27 0.67601367468148565 91 1289 9 1599 79 839 50 651 67 678
1183 0.11577279618392244 1.8734666523134169 1.578429870704912 103 90 26 0.88388088613520777 51 1251 90 1157 98 1212
6270 -0.6798099719005104 2.8123171748028253 1.3792471514594804 113 117 110 0.4452428520587815 62 496 74 460 37 429
5897 -0.11234902351018154 1.6169314454995947 2.0114638846127564 255 198 54 0.035676617430851286 8 445 73 404 35 351
810 -0.9681553051039854 2.7274618944322411 1.551901782484935 118 121 113 0.34155115799115771 95 1284 41 1430 51 1120 46 1324
1724 -0.65268240275232414 1.6789503065156244 1.1347418651822092 255 227 72 0.99218719716595594 55 1538 7 1360 26 1134
2002 -0.52804212004602369 1.6015702092185033 1.2333809602154109 255 240 69 0.21833907723621312 87 937 94 812 40 831 44 600 92 657
1467 0.51510014908500168 2.4049467229184534 1.9306447854447051 218 201 162 0.059857631257357297 98 942 91 970
6181 1.3909281717730955 2.2503769269139746 1.9574458668099197 0 0 0 1.7196052090315723 6 1078 69 957 96 829 63 855 99 967 42 792 75 933
1094 -0.28552863811309198 1.610816476451234 1.2461974347429625 0 0 0 1.6002105198145553 36 1140 77 801
1241 -0.97144581836739363 2.7260359917610488 1.5560127195108229 130 133 126 0.068898777622897603 90 911 98 892 83 864
5955 -0.98153527942791463 1.6814274483541911 1.3933893171557077 254 197 54 0.10135118829402025 8 685 73 635 35 547
868 -0.45156970080882752 1.6255783582747569 1.1925766000124611 173 125 23 0.28162060066712691 95 1008 51 1044 90 980
1782 1.2778734762033375 2.3980954446646638 2.1139631491942246 90 89 83 1.5860191184173007 41 828 87 444
2060 0.69277652877790863 2.3778768930646175 1.874680201716191 221 204 166 0.12638370062014706 87 1145 94 1009 40 1013
1525 0.89913530302198086 2.0592797002369134 2.402003812682151 231 218 181 0.46040754401782813 29 147 95 321 41 210 51 233 46 412 98 174 83 167 9 506 91 252 55 243 7 730 64 481 55 813 87 696 94 607 40 604 24 496 15 476 18 614 70 549 42 430
6239 0.38173145999441987 1.0420795274514596 1.5972134978682642 113 96 41 0.3080572466257453 62 352 74 327 37 295 38 250 20 319
1152 0.40201462084661671 2.1149999386521015 1.9839440320734496 236 214 172 1.1147471675297638 51 937 90 849 98 1057 83 1030
1240 0.66076038766328504 2.2211219617346032 2.2088030993345673 231 215 176 0.021563614562094751 90 669 98 872 83 855
6327 -1.4028658143047363 2.3822098504335654 2.1157290758064415 54 38 29 0.66391912851841361 95 419 97 408 17 395 41 383 29 302 33 253 81 474 2 507 74 307 62 333 37 280 1 487 21 343 65 444
5954 -0.98153527942791463 1.6814274483541911 1.3933893171557077 254 197 54 0.10135118829402025 8 684 73 634 35 546
867 0.41932899802800733 1.3941525632623277 1.5964160758835666 140 121 36 0.32305761603543548 17 1396 51 1041 90 785 46 1452
1781 0.4620161691159731 2.3346762825730236 1.7447891863965947 224 203 156 1.3225162572147473 46 573 87 368 94 265 40 296 26 295 60 280
2059 0.97655537129220993 2.116481486519731 2.3093475695503161 234 218 177 0.20578102694804223 87 1126 94 1003 40 1009 15 861
1524 0.085221362812136978 1.0123782590870818 1.7814822124445469 0 0 0 0.83524783222934984 41 1542 46 1609 87 1383 94 1256 40 1264
6238 0.39355290734945514 1.0801951884809173 1.4682266990858466 21 18 14 0.23973236855579003 62 350 74 324 37 292 1 497 38 249 20 318
1151 0.29357796246937395 1.9442282531911241 1.8870473258202829 88 56 11 0.37435607608623789 51 922 90 839 83 788 98 632 55 807
1237 -0.076124242745395435 2.3537263371248502 1.6614692896755694 83 68 16 0.28964213660761451 90 859 98 846 83 824
6324 0.25243137683843581 1.2928627200142273 1.6787543099427922 131 92 23 0.55829272493017656 1 823 38 533
5951 -0.89821446384888026 1.5847349638852957 1.3267074702043256 174 120 24 0.17491012229606304 8 667 73 618 35 299
864 0.61447799849974472 0.91363277242779195 1.556437490522949 0 0 0 0.54354361818725816 95 1305 51 1025
2056 0.91603525098177185 2.1352226892673469 2.2800448294623452 236 218 178 0.083771398582487097 46 1156 87 1117 94 993 40 998
1521 -0.6517229561803024 2.5324012153439202 1.316753946847484 13 15 19 0.94872076301748864 90 1162 46 1542 7 1289
6235 -1.1897063137520962 2.3667469546806421 2.1369462162043011 223 210 174 0.17266205612003568 62 319 74 293 37 273 1 598
1148 0.99003123674695492 2.2890760139939181 1.9662319662988181 233 217 179 0.11644608419729356 51 973 90 726 98 950
1236 0.24942369358097999 2.2133554184092783 1.6597769658875263 53 58 76 0.15926034045645726 90 851 98 837 83 810 91 869
5950 0.28732910088821667 1.5297747209473935 1.5353939666726781 182 138 37 0.042190613196958604 8 658 73 613 35 526
863 0.46067689500576181 2.2495482830513609 1.7862601585728184 220 203 166 0.77244766605608239 51 948 90 1035 98 1153 83 1133
1777 -0.30152222927958255 2.7265157348278439 1.4127411509745891 50 37 33 0.51241880980340515 7 513 87 297 94 216 26 569 53 503 15 76 5 579
2055 0.91489236687939979 2.1365613419832887 2.282146162457813 236 218 178 0.12386192104438933 87 1116 94 992 40 997 24 919
1520 0.013625305683980895 2.7595575358766955 1.4289982150721476 86 85 79 1.6262763981955384 97 1174 46 1515 9 1513 83 1164 87 1072
6234 -0.41576400026582228 2.8049876646409961 1.3105512502778327 18 12 11 0.20255741662629986 62 306 74 282 37 260
1147 -0.62541960889110859 2.593979571017516 1.3281854743459065 50 51 66 0.098722003400728633 51 800 90 723 98 279
1235 -0.26922470726722059 2.0416228806946393 1.3907226050003372 115 96 25 0.48377809700969859 90 831 98 802 83 768 91 604 46 1093 9 1029 7 900 49 90
6322 -0.89959005262474245 2.3337076043262792 2.0645261600639162 0 0 0 1.8225577632388461 62 621 65 1080 74 576
5949 -0.030610282482515145 1.2012984930305681 1.857257582631044 102 101 110 0.14841669957946835 8 661 73 612 35 523
1776 -0.5398283586512086 2.7994003465279991 1.3706653537415017 64 65 59 0.3515250014840019 7 511 87 252 60 359
2054 0.56023230059865825 2.4408724517948115 1.8471809669119617 222 204 166 0.30440510975796325 87 1120 94 987 24 833 93 825 18 1024
1519 0.04824797935892431 2.5714067643707739 1.682709874590095 29 33 33 0.22047193317823313 91 1115 46 1505 9 1504 7 1231
6233 -0.79912388643601306 2.4416883249366252 1.9803975257884043 53 50 43 0.42966471658761085 62 297 74 276 37 259 1 453
1146 -0.59198936861743001 2.5468761399725772 1.3272767383884223 19 22 32 0.21183446437266215 36 686 90 705 98 227 83 180 91 161 9 397 79 100 27 257 85 246 50 228 67 100
1234 -0.76064486702814416 1.8307211489008053 1.0627085960737246 16 15 20 0.11088728809400385 90 794 98 778 83 744 91 560 46 751 9 751 87 44 94 28 40 24 79 457 13 439
6321 -0.54515948417959836 2.8262547922875365 1.3603653515282819 117 123 118 0.75085898851906496 37 508 65 1052 1 759
5948 -0.022366996068164446 1.1998354669003655 1.8166624481212139 244 193 53 0.09814953489120902 8 657 73 611 35 517
861 0.024792749650891961 1.528345979025501 1.7774482898016306 171 136 53 2.8966457039206048 17 991 51 882 46 971 55 939
1775 -0.44579793767552783 2.6544721834265368 1.459213095732687 0 1 2 0.31145389886623276 64 383 87 234 94 172 40 202
2053 0.63990822226235311 2.3703439421386818 1.9710189147592274 226 208 168 0.079353220858304582 87 1111 94 986 40 991
1518 -1.0359452393764865 2.7679877578945291 1.4287474902710184 0 0 0 1.9212093345903039 98 1069 46 1497 64 1230 34 1143 43 1032 53 1065
6232 -0.36607097442336656 2.774302480659955 1.2954425588589082 36 25 21 0.3078564482163812 74 149 37 254 62 171 1 443
1145 -0.59294766085587758 2.5474899940137665 1.3291753678919298 19 22 32 0.2145167859236968 51 795 90 704 98 228 83 181 9 398 27 258 85 247
1233 -0.37128600083618368 2.7883777204006024 1.2459401371070964 105 72 53 0.12408479769394877 90 742 98 724 83 715 91 707
6320 -0.79052980045940635 2.4120907826606044 1.2584015077073101 95 108 138 0.31477946638425708 37 415 1 756 38 406
5947 0.25807551960785918 1.4836222588666348 1.4934517036007227 182 138 37 0.045037878437512495 8 655 73 608 35 519
860 -0.59613704394846556 1.6824128603671058 1.1081404923043787 253 232 63 0.2520648610752787 95 1205 51 879 30 528 36 533
1774 0.35592747648284362 1.8785175650171673 1.9209497256775356 57 52 60 0.17890593313459069 91 112 87 224 94 182 40 212
6488 -1.2572881610967035 2.5070470069254029 1.9346735149526331 99 100 88 0.32690210964936051 1 351 38 158
2052 0.63990822226235311 2.3703439421386818 1.9710189147592274 226 208 168 0.079353220858304582 87 1110 94 985 40 990
1517 -1.1453511091993296 2.6656997815055514 1.6006349884932574 0 0 0 0.92239721847279199 90 1109 46 1490 55 1419 64 1223 43 1034 32 1030
6231 -1.1042570047344538 2.3011751322528764 1.6579722035468543 22 24 32 0.064960247429317802 62 282 74 262 37 241
1144 0.48871430583286424 2.1856473688309501 2.2337229473904685 109 97 75 0.076198978519294913 51 738 90 642
1627 -0.83844984494250685 1.5720972896984138 1.3005487291248925 254 234 88 0.17368296011879539 46 689 55 945 7 813
1213 1.0120493562985737 2.343018617700769 1.9203332976348904 105 75 64 0.19149650543972219 17 440 98 492 83 464 91 518 9 943
6300 -0.83698390317806159 1.860586110333128 1.0783677616185527 98 77 20 0.16591246210063898 65 145 1 52 20 25
5927 -0.68081762279481317 2.7333508483251281 1.5135151115368399 102 102 90 0.12984816684562395 8 555 73 503 35 437
840 -0.47116978689661593 2.5107417422910925 1.3838664628122939 19 23 36 0.14294935154251004 95 535 51 424 36 333 90 313 98 219
1754 0.41684250141297696 0.77345043157549342 1.8916589266786321 254 250 81 1.970215623098265 90 957 64 963
2032 0.41893835414043806 2.3058375504481732 2.0682470440012177 224 203 159 0.13221588417517571 9 1174 87 1045 94 916 40 928 24 788
6211 0.45922202075355967 1.1232697158659581 1.3700108709316778 32 37 47 0.20642097406754192 62 5 74 5 37 4 1 4 38 2 20 1
1124 -0.43575259539668038 2.53264486573618 1.4128460232506768 29 26 8 0.11896893202015929 51 446 90 345 83 215 98 267
1626 -0.83810140667213273 2.8865177788877343 1.2835902384417104 93 99 94 0.2031053171225122 41 963 55 897 64 720
1212 0.70633624015033969 2.3870291590745065 1.8565642232522377 222 206 169 0.060659413134238414 90 392 98 469 83 693
5926 -0.68634125753505315 2.7961291198804887 1.4280271836052316 112 114 107 0.038937852495379836 8 552 73 501 35 436
839 0.066199819438627586 2.3683234496881092 1.6300383350489989 6 5 5 0.059281747459641591 97 423 51 379 36 281 30 282 90 266 91 232
1753 -0.96411225688203128 2.6917799390981916 1.5923078336592773 115 118 109 0.16966376587047324 55 879 64 937 82 509 5 851 34 585 78 456 54 592 43 502 59 827 21 866 65 793
2031 0.40733582963492548 2.3295898783813977 2.0950747540073285 224 203 159 0.12646964935751584 87 1046 94 915 40 927
1496 0.68725893600277888 2.4302299196496202 1.8149680904161398 33 19 15 0.28264676292068058 41 403 46 627 55 498 7 509 64 277 87 417 94 310 26 327 60 313 82 189 5 181 34 130
6210 0.47194338954385279 1.1187023419158528 1.3771079779869322 32 37 47 0.089312731826332065 62 6 74 4 37 3 1 5
1123 -0.40829087452766266 2.4939832849404282 1.4155827458648733 19 22 29 0.1682480385304892 51 416 90 304 98 221 83 191 91 179 9 420 79 319 13 124 27 267 85 387 50 232 67 270
1625 0.30658865335788743 2.5912795718527186 1.5865599471009793 56 40 35 0.10217601789451417 41 894 55 883 64 667 26 570 60 568
1211 0.43680360323571293 2.4325573692906706 1.8679960582481454 207 191 155 0.11230225086267458 90 389 98 439 83 418 91 435
6298 0.77522592747505592 1.6473906629046535 3.0773985265080568 116 77 56 1.1302435069310823 14 852 61 963 6 1001 52 969 69 912 63 811 87 999 40 893 68 769 43 553 88 511 32 684 4 40 11 907 44 784 92 855 76 823 25 816 45 927 86 902 100 968 80 1020 39 893 28 865 31 851 57 948 72 1026 66 1097 61 1022 12 1078 71 924 96 793 84 702
5925 -0.70963848312359579 2.8457831879640261 1.3455509067546565 121 125 118 0.10659697122668921 8 549 73 499 35 194
838 1.1249069547357264 2.2203405664076383 2.1553106995088194 115 106 87 0.21606446753382469 51 375 30 268
1752 -0.7187886834566144 2.6375394151899911 1.4853849187331407 87 88 82 1.6372131293764765 29 873 64 933 48 449 81 627
2030 0.44791480022689206 2.2500633636191574 2.1445058835234461 223 203 161 0.055811717063967974 87 1035 94 909 40 922
1495 0.39399262484938719 2.1552211566852808 1.8094804422878703 217 198 157 1.8709323572599466 17 347 41 295 46 435
6209 -1.1807602894725908 2.6010662851589905 1.7463581249353273 97 88 68 0.31867329804335637 2 314 62 225 1 355
1624 -0.9327665754677219 2.7194548187355601 1.5385048329440867 120 122 114 0.24476399348025724 46 870 55 881 64 942 34 791 78 457 54 808
1210 0.21363535468896702 2.3999179785198037 1.766963418446641 33 32 40 0.077215422311736809 90 335 98 331 83 304
6297 0.32066128663520527 0.76236760386134717 1.8833830187449725 102 83 24 1.9220974031438931 48 802 81 881 29 1218 95 1448 97 1332 36 1127 30 1144 33 972 2 893 37 542 77 756 58 760
5924 -0.65023418939072541 2.8676328748156243 1.308569406971521 101 101 88 0.093426756679241676 8 542 73 491 35 427
2029 0.37775714982346076 2.2869098763382754 2.1373739027938767 220 199 156 0.067875188660213678 87 1029 94 904 40 917
1494 0.32841564453293931 1.9449562099914908 1.9191318307244483 121 99 30 0.39974216311726796 36 133 46 309 79 72
6208 -1.4399120296902865 2.3363313357019719 2.154592542460271 160 111 86 0.35840203242151836 81 223 62 205 37 278 74 403 1 601
1121 0.2777618119859171 2.3218718645428784 1.7471668855476754 21 26 39 0.14986328858579354 36 255 90 259 46 525
1623 -1.104668449216595 2.5612355949741494 1.8182462951864946 136 134 124 0.19947830182224624 41 447 55 858 64 682
1209 0.87367271553309567 2.0920938540433558 2.3473565311478199 131 117 89 0.18128740023223411 51 239 98 190 83 199 91 269 46 426 9 530 87 375 93 264 18 612 70 221 23 610
6296 0.91537347497892629 0.92858188723970303 2.0804171980827619 108 69 10 3.2496397813869473 2 924 37 565
5923 -1.0327898957625024 2.2242180375702949 1.690464528820935 109 111 126 0.12721408970242545 8 535 73 484 35 405
836 0.58017374798007892 2.1873245813658602 2.2560939847082202 111 98 74 0.24512809794812437 41 273 51 274 46 434 9 501 55 292 7 295 64 170
1750 -0.20750667951171894 2.2434661315939306 1.4699434873288584 4 3 2 2.1603745971350237 7 746 64 897 87 813 55 1312 94 499 87 610
6464 0.39284209404688192 1.5191758207006072 2.8765796764895786 0 0 0 1.161126053576548 99 970 75 936
2028 0.44307083685757381 2.1536230733321786 2.265022656011928 238 216 171 0.1290494890361725 87 1017 94 896 40 910
6207 -0.22285846297848166 1.5145442395691697 1.817288514298409 124 73 11 0.35980554270796922 74 229 81 45 62 56
1208 -0.60540821906808917 2.4995929924831235 1.3454909383070297 47 49 63 0.50465414456411939 90 278 98 175 83 646
5922 -0.5656934453184872 2.8623425876502067 1.2722780361768229 40 27 21 0.17464533531065954 8 529 73 483 35 174
835 0.52594862751565041 2.1871123347229386 2.2486659547474095 238 221 182 0.0054966280454684475 17 338 51 263
1749 -0.93829877710203424 1.9991365371665533 1.5223111656535555 129 98 21 0.45755614953467266 29 973 64 883 33 763 81 709 48 707
2027 0.539211010554282 2.5839093338239714 4.2841088646327812 236 219 181 0.0062234566232499192 87 1021 94 895
5921 -0.88786126865959847 2.3866685963738554 1.573956852974371 2 1 1 0.46363623251832187 8 752 73 480 35 158
834 -0.46379986321055128 2.3190172900805783 1.2764706975998281 7 6 2 2.1529169164038202 95 1079 51 260 90 175 83 113
1748 -0.30753224075424085 2.0278201369407505 1.3951305435065315 247 204 57 0.13102284891450697 29 519 64 876 33 103 81 66
2026 0.54928169281776495 2.5590254560733907 4.2372570624210235 236 219 181 0.17312176514711511 87 1020 94 894 40 908
1491 0.77193168011609192 2.130793523651985 2.2907264765956086 95 87 70 0.28611802249085055 83 837 98 673 95 778 97 725 29 174 17 823 41 781 51 735 36 619 30 618 90 643 91 891 9 1171 77 124
6205 -0.91464753439604152 2.0873890178896968 1.5020402739627126 186 148 37 0.078655336265161371 2 846 74 520 62 567
1118 0.61800750871647092 2.1293265298814612 2.3027152158002848 235 220 181 0.3173008130307558 17 317 90 194 98 167 46 411 9 469 64 141 94 254 40 276 26 138
1206 -0.65119887748608896 2.3378702828652407 1.4013617549268169 26 17 9 0.27961240316762864 90 167 98 116 83 108 46 404
6293 -0.36714879798572186 2.7750239940194996 1.2910564695917432 31 22 19 0.49587888560042159 29 710 33 524 48 455 2 486 74 150 62 172 37 253 5 591 4 560 43 246 21 605 65 557 1 442
5920 -0.64444423142409901 2.1042635930738598 2.0733398272477679 132 77 10 0.064782811049803407 8 532 73 479
833 -0.24968704719366674 2.2687733124590923 0.97572887938130048 77 67 16 0.96359635001188737 97 368 51 247
1747 0.43423652494017634 2.196355788896851 1.6906663692493167 218 203 166 0.27527681464007264 41 1104 64 855
2025 0.41557295265753658 2.1103236486966099 2.1450655004463601 234 211 167 1.3310370593542402 87 1260 94 892 40 906 18 1013
6204 -0.88605559351355034 2.2831696232275078 1.4693405744925041 85 98 130 0.17439045044784759 2 745 74 487 62 529
1117 0.069493835428943634 2.0444084926975727 1.8167264879722436 12 16 26 0.063815638518739073 36 148 90 123 98 106
1619 0.42063272986091155 1.0545640422843994 1.4847895768284287 9 10 14 0.57118108750921914 46 20 55 674 7 809
1205 0.32316742008537297 2.0389226506026423 2.0463450336050792 117 86 22 0.27758791696095325 90 134 98 112 83 110
6292 -0.89387923551480686 2.2556119390826623 1.5130806085548623 68 47 5 0.34887713892849975 81 599 48 118 2 630 74 370 62 390 62 474 37 343 59 566 21 588 47 557 65 726 1 553 38 355 20 480
5919 -0.10961160178349111 2.0340810003450054 2.4509650954701345 8 6 7 0.22978356406524703 8 523 73 471 35 417
832 -0.23408431796790932 2.0483421517313825 1.3749239914401099 168 179 208 0.17238744335558337 97 254 51 133 46 332 9 186
1746 0.55098195600263522 1.3505222508531796 1.5990118067683012 86 64 15 0.7953449227514573 17 1251 64 751 30 1019 51 1149 36 1001
2024 -0.32544726695582599 2.5821433837447296 1.5013821716281968 5 6 6 0.20369229401460029 7 1229 94 878 40 886
1618 -0.52439467623600311 2.8777903438682331 1.2198446359770421 65 49 45 0.18749148575085384 41 499 55 637 64 415 29 742
1204 0.68981546304037389 1.6557437351404609 3.2634625653263734 72 47 32 2.085505022159075 90 97 98 91 83 91 91 114 9 204
6291 -0.82091232451958973 2.1110404872874864 1.4840204003532496 52 37 7 2.8955832800113845 62 103 74 82 37 218 33 158 81 105
5918 -0.029283973899321591 1.9878820592315221 2.5447935405274769 233 214 172 0.099930833577738409 8 520 73 470
831 0.60548640616571536 1.8513475281275329 2.7618992654000545 236 220 183 0.098660602844446527 95 209 51 128
1745 -0.49085570010301688 2.3220958003602292 1.3111476882462387 3 3 2 0.92242729376604693 41 1299 64 679 59 745
2023 0.14400543817778913 2.1296358647575762 2.0199445292852363 65 46 7 0.16298112097220538 87 1254 94 875 40 888
1488 -0.67988243574740759 1.7714709874494274 1.4454233844244699 65 70 90 0.40422650393870629 91 1327 13 1088
6202 -1.2950063372108225 2.4430122211629004 2.0078220688781525 228 214 177 0.37807832253828855 2 669 74 308 62 334 37 381
1115 0.59952311202392117 1.8028486888251487 2.7867916269884412 110 97 73 0.25484894981812961 51 110 90 111 83 606
1203 0.37815023655287477 1.8052433702149058 1.9076387218562363 6 6 7 0.81564654742548859 90 84 98 81 91 834
5917 -0.1086664193436804 1.9780309690730389 2.4517088883991227 5 5 6 0.42242957454074931 8 512 16 578 73 466 35 407
830 0.57366287761896972 1.7947870164153996 2.848921032165745 105 93 73 0.80963886642372929 95 186 51 107 36 140 30 112 90 109 98 633 83 102 91 628 46 780 9 810 27 88 85 89
1744 -1.1779754968351153 2.3241662691681837 2.1780475025301405 207 195 163 0.12691830269191251 41 825 64 648 82 677
2022 0.14400543817778913 2.1296358647575762 2.0199445292852363 65 46 7 0.16298112097220538 87 1253 94 874 40 887
1487 0.563631353053066 1.5498187143913773 2.2318300640711084 0 0 0 1.7097746155494762 83 1275 13 1086 49 1258 3 996 79 866
6201 0.26429629396303406 1.5699539842333987 1.4209343617916945 18 22 31 0.20743971533187827 2 385 74 221 62 247 37 29 1 29
1114 0.43681257120580469 1.8137201394450062 2.7909589430365673 47 28 17 0.22523117703171913 51 106 90 107 83 96
1616 -0.94702686251593859 2.666857763559233 1.477031885883126 114 117 109 1.201180446866053 29 363 55 529
1202 1.254795492397093 2.0683571830341116 3.9592149594055139 129 120 97 2.3782135612657394 51 269 90 241
6289 -0.62192040396248038 2.6523550132626403 1.4150884899260228 18 20 22 1.3443400937648526 37 559 1 817 65 1081
5916 -0.93675932448316823 2.2187107061062186 1.5688104654444299 77 59 10 0.18016233253956127 8 220 73 464 35 132
829 0.06217457183254356 1.9159358342170134 1.6421884976424317 116 95 24 0.25391957589413305 17 224 51 96 90 89 46 262
1743 0.33476762479253158 2.1367292621443132 1.6851115607064178 52 53 58 0.1611087125761993 7 747 55 369 26 545 60 526 53 472
1486 0.26085468113802174 2.1782516430806815 1.8180539685542294 36 28 25 1.3209528589393857 51 1307 91 1319 9 1618
6200 0.33016962481161133 1.2043412381587382 1.4838929088149733 121 101 30 0.66156199363634871 33 723 74 207 62 360
1113 0.4949968843335607 1.7903934512314674 2.8399428825621729 52 34 23 0.32159541096995314 51 100 90 106 98 97 83 97 91 623 79 92
1200 -0.49854763980911065 2.5199689261242648 1.366761412437242 55 67 94 0.27690751931179319 36 859 30 865 90 874 95 1118 97 1033 17 1175 51 980 98 859 83 830 91 874 79 528 77 559 13 507 3 429 27 417 85 385 50 401 67 424
6287 -0.9547430070414783 1.9102550819974951 1.6563218233573951 161 121 28 0.89246863156538581 62 590 74 561 37 550
5914 -1.0683415663441955 2.0594492733660399 1.6379874586278889 79 87 108 0.11742669775260255 8 213 73 459 35 130
827 0.7858342959959137 1.7042457102765576 2.9689848660793934 234 220 184 0.11795363083762905 97 166 51 90 90 103
1741 -0.38606717057401196 2.7795621915503572 1.3210277732849769 19 16 17 0.25465936082566537 55 609 64 406 82 305 5 338 34 272 54 232
6455 1.3267855543593694 2.2278189118656626 1.9933552968835959 146 100 77 0.29355931256339041 99 881 75 849 89 677
2019 -0.16083138994323914 2.1742100379972853 1.5278245065304539 104 74 13 0.10497376522763564 87 992 94 860 40 881
6198 0.41154041487617338 2.3642305079609094 1.8066492806763601 1 1 3 0.052272876647547144 74 105 62 127 2 145
1111 0.41915357240400786 1.7079726391995711 1.8190946725806887 3 3 4 0.20049649444607956 51 76 90 69 98 595 83 567 91 600 9 787 79 265 27 214
1613 -0.45542116403217142 3.6416600950964111 4.4318810996912497 7 5 5 0.22387332336238652 41 485 55 428
1199 0.52993832735625201 1.3979244999187717 1.5929711323531395 93 72 17 1.1595042362215098 97 631 30 766 90 982 95 1191 98 1006 83 972 91 1026 46 970 9 1264 79 704 27 567 85 438
6286 -0.78502497082600209 2.1541557206306114 1.3642542569793243 153 117 28 0.33985137003348093 62 605 74 563 37 538
5913 -0.012238004299784229 1.9276816199010736 2.4381877441949844 9 7 7 0.062162331447899032 8 502 73 453 35 394
826 0.72726394534262173 1.3806344457651589 1.4944568445487585 104 91 25 1.447672022944595 95 1440 17 1522 41 1502 95 1402 29 1187 97 1284 51 1280 36 1091 30 1146 36 1129 90 1210 83 1240 98 1269 33 831 27 674
1740 -0.38732362904849638 2.7822115012161857 1.3211467302359978 19 16 17 0.39557396761643038 17 567 64 405 82 306 5 337 34 271 54 231 4 268 59 293
2018 -0.51753492189549921 2.3558439291399917 1.3375844224977962 16 14 5 0.21983007205851071 87 801 94 848 24 303
1483 0.17918109165622317 2.7826591345039797 1.6965083184966372 0 0 0 1.1381688965874144 95 1350 91 1213
6197 -0.99586993359756293 1.6330324770927716 1.3158599868241558 99 68 15 0.20074774868984421 2 57 74 23 62 32 37 194
1110 0.24372022585796502 1.6979368736524509 1.6550655590593533 152 107 37 0.24158946777106846 51 67 90 59 98 46
1612 -0.4346305442355477 2.0902174505933009 1.3096152864643502 234 194 53 0.26182942078377658 46 323 55 351 7 721
5912 -0.012238004299784229 1.9276816199010736 2.4381877441949844 9 7 7 0.062162331447899032 8 503 73 452 35 395
2017 -0.19900569367391946 1.8098169577654231 1.6618255738620376 196 163 54 0.056861896755552178 87 972 94 838 40 861
1482 0.82739097904750492 2.4916827301716973 1.8199147511348095 89 89 84 0.063245374587874881 97 1145 91 1212
6196 -0.098920818314317274 1.9229470503668413 2.692910954506337 50 33 29 0.32941075247483748 18 166 70 157 23 242 42 123 53 384 82 416 5 470 34 469 78 118 54 458 4 493 43 429 88 429 68 321 32 763 44 305 92 353 99 189 75 161
1109 0.49545301104805928 1.4494684642108946 1.540866250524614 20 25 37 0.26694146780873351 51 41 90 41 98 34 83 544 91 577
6325 -1.3687595056434483 2.3483428138887636 2.1394808766895932 167 126 107 0.71080753772123506 21 324 65 417 1 292 29 288 95 399 97 391 17 380 41 362 33 238 81 216 2 252 37 158
1197 0.52699543038462637 1.1593413266214216 1.3551644456326437 127 105 28 0.91889202893362876 95 1175 97 1081 17 1242 90 756 36 21 30 490
5911 0.43223361019956952 1.6958804124857436 2.9385473912675284 152 103 78 0.1458991314201408 8 497 73 450 35 396
824 0.79131781762342102 2.116297249419627 2.0509386067618842 228 213 176 0.97673111083280462 17 1572 41 1566 51 1314 90 1249
1738 -0.88425401750420385 2.6274277761324627 1.5325841731447147 62 65 60 0.30112366086906417 17 528 33 299
2016 -0.85181880113373742 2.435765718844543 1.2195253897079135 88 105 143 0.19143479509487515 9 1487 94 837 40 860 87 1238
6195 0.43584111500476852 1.7537272463452536 2.8683015443956399 107 74 61 0.34308385565532273 93 453 18 213 70 348 42 254 82 355 43 401 44 419 92 468 84 365
1108 0.65756915169437846 2.2266539843981077 2.1554334420971464 234 217 178 0.26206736870716091 36 231 30 226
1610 0.64158195729502543 2.148314267231862 2.251841610422336 232 216 179 0.2000527324090895 83 172 55 275 7 294 87 350
5910 -0.59739624678008352 1.8883690041477212 1.946459736007033 254 237 59 0.15298442328112882 8 490 73 443 35 123
823 0.67545568988665916 1.1860947609345971 1.4105851804020595 112 102 34 1.58737260384807 29 1240 41 1562 33 998 77 831 58 828
1737 -0.31197707002494335 2.7156402216077145 1.4926496219627119 67 76 78 0.11497979335579007 7 500 64 384 26 338
6451 0.37590779174527 1.7155543854332413 1.9479707949595457 207 150 37 0.23314860646548005 99 862 75 825 89 666
2015 0.64699687011522389 0.9625328835098077 2.128925766384858 29 22 0 0.67012022699057194 87 961 94 835 60 750
1480 -0.55827825994547986 2.9782200554954716 1.5054242716708757 86 86 80 1.1999575684182127 83 1165 91 1201
6194 0.43223800897097853 1.7876474387527497 2.8466284338769174 85 60 51 0.83232099939959892 93 797 70 633 49 862 46 1256 42 524 78 59 54 412 4 107 43 596 32 716 11 753 92 755 45 774 45 908 86 670 100 539 80 284 39 434 28 425 31 202 84 633 69 746
1107 1.5187065985728538 1.968874527124479 3.4477010253238385 125 116 95 1.9540679818778828 36 180 30 195
5909 -0.061952156113559295 1.7629059810701895 2.4000684336237188 7 6 7 0.43015312488551705 8 736 73 440 35 383
822 -0.77318394040176486 1.558880153907956 1.230335927059147 234 205 61 1.3139466918435461 17 1523 41 1533 51 1242 90 1175 98 1194 83 1173 91 1227 91 1257 33 936
1736 1.0518290279882883 2.3394129843036469 1.9079359086394914 197 186 182 0.14399939290091446 7 779 64 229 94 621 87 707 40 619
2014 -0.32293342733993452 1.8459041345111702 1.6181923906751554 252 205 55 0.081093337760567971 87 964 94 832 40 677
6193 0.067016905470922913 1.8973153000927503 2.7180262263534121 223 209 173 0.49856229544854341 93 425 18 183 70 329 42 352 88 568 68 595 92 588 84 465 99 465 75 531
1106 0.3378958969059882 1.5718139909656514 1.5324984514412985 152 110 39 0.077121868695631784 36 77 30 60
1608 1.1429146853119132 1.9745452935160437 2.5104297232460779 232 218 183 0.35189654576178681 46 398 55 205 87 701 94 614 40 610 24 500 15 484 93 694 70 562 23 881 18 634 42 442 99 605 89 535
1194 0.3711483348045253 0.84906320367604748 1.7978110904250055 148 128 44 0.47214757191872675 51 1295 90 1238
6281 0.41737705794101021 1.0469897838408879 1.3928367205248455 150 134 51 0.84190413266054231 2 895 37 513 38 471 20 582
5908 -0.94920361025220457 1.9502003053089199 1.572378613583943 153 91 25 0.14274864982178379 8 486 73 436 35 606
821 0.44421754189786328 2.5344190891308496 1.6526609167940893 75 51 39 1.0744521480890132 97 1320 41 1522 36 1113 97 1302 33 967 81 890 48 797
1735 -0.21983582811230376 1.8807323123090138 1.5672376450987384 162 113 22 0.035551947569908142 55 206 64 217 26 132
2013 -0.47748653058720575 1.8795425068093785 1.2237381231365274 6 7 9 0.19938469620239674 87 959 94 830 40 853
1478 0.45107262771228829 1.6421756423347469 2.9632514542084722 0 0 0 0.69952165535504929 83 1189 98 1141 91 1179 13 1014
6192 0.36560947442984271 1.821216844963206 2.8070710042982947 78 51 36 0.81955612341845507 98 629 83 599 91 849 9 1043 46 1004 79 306 18 758 93 786 70 626 23 712 42 509 45 903 92 747 86 774 100 875 80 924 84 625 69 592 99 682 75 648
1105 -0.49561736892136865 2.5422623629328123 1.3748823302689188 56 63 86 0.30362244968172064 51 1190 36 1028 30 1059 95 1347 97 1225 90 1110 98 1155 83 1135 91 1187 9 1493 13 910 3 792
1607 -0.72409787915838519 1.6872624575258663 1.112989908835432 154 121 29 0.11367846700249135 46 96 55 142 64 244
1193 -0.017952568112385568 1.9914428438456078 1.6010534696882845 56 45 39 0.85374706384175292 30 1156 90 1222 27 692
6280 -0.11955461071918748 2.6635306299431956 1.5425806493240326 73 81 80 0.16058098357275233 62 597 74 554 37 501
5907 -0.97309406550697775 1.8775996415698362 1.5995859326671427 158 156 172 0.031041693743467363 8 483 73 434 35 374
820 -0.40598165681748283 2.031465288817818 1.3879942312860278 84 68 14 0.89481526076617612 29 1182 41 1519 55 1526 7 1324 87 1367 26 1118 60 1141 33 922
1734 0.61337942480693952 2.220226292475413 2.2021474942075856 127 115 92 0.034887259574131829 55 319 64 191
2012 -0.34461874395050307 1.7676186352456507 1.7295176133431751 254 215 65 0.16549573701236184 87 765 94 828 40 850
1477 -0.28132714014918914 1.7192636608620979 1.7508547051379002 252 210 71 1.3983529755493649 98 1018 91 1165 9 1532
6191 0.1963965027864692 1.764234663603325 2.8387276658773706 153 103 76 0.53028360163747734 18 483 70 622 23 524 42 695 53 702 82 745 78 522 54 875 4 918 43 916 88 822 59 668 92 904 84 747
1104 0.16058884179649979 1.906098564123728 1.6038130704265783 10 11 14 0.12895712615348848 95 699 97 680 17 750 41 735 51 911 30 800 95 700 97 681 36 792 90 822 98 798 83 769 27 381 85 332
1606 -0.63924233074778514 1.6163620454272798 1.2236274204320459 165 111 28 0.19546981744185624 46 79 55 94 7 136 64 197 53 264 5 231 34 216 59 175 21 77
1192 0.24084477709343219 2.1384809495260519 1.9110520898715273 8 7 7 0.78932392990239797 51 1285 90 1218 98 1275 83 1246 79 845
6279 -0.9827337700758455 1.824666469270146 1.5337451244208944 162 169 193 0.03058065827413704 74 517 37 492
5906 -0.79513061648263494 2.2154884473634699 1.2731249701312275 160 122 28 0.1145156375289228 8 479 73 430 35 375
819 -1.3799581720699252 2.4902423096932673 1.9763278281057362 0 0 0 2.089603055871903 97 1318 41 1497 82 1042 43 1075 11 1094 88 999 45 1072
1733 0.17927783955961427 1.3598064360192388 1.8641181341135737 148 122 33 0.2728213776536374 7 89 29 22 64 35 33 35 77 44 81 38 48 41 58 47
2011 -0.36273345822344849 1.7673578157342551 1.8022959099580442 153 88 7 0.21508808574854529 87 955 94 826 40 848
1476 -0.62266436714538542 1.4314458371886356 1.443055208086133 0 0 0 0.75972583801719495 83 1172 98 1118 91 1152 9 1458 46 1435 55 1181 13 849
6190 0.5431107989003684 1.8736727653927405 2.7408952486246783 251 228 176 0.12326712600389345 70 660 42 535
1103 -0.53075294270038931 2.5280910547615303 1.3550776111795824 22 28 41 0.13440548352658105 51 792 36 683 30 688 95 538 97 813 17 516
1605 -0.7534231695873117 1.6116295760550172 1.2407018556085403 255 224 73 0.41914487568986153 46 70 55 83 7 115 26 94 60 125 53 263 82 261 64 207 5 241 34 530 54 205 43 256
1191 -0.66042669040932978 2.4635701645708665 1.3796814472387635 13 14 16 1.2967901988600803 51 1286 90 1206 98 1261 83 1235
6278 -1.4383637116850383 2.3881619082115488 2.182664096158379 101 102 94 0.11979140116217146 62 577 74 496 37 482 38 429
5905 -0.76950389410449893 2.1651631300699643 1.3417438870429659 54 53 58 0.10268392903459123 8 728 73 428 35 602
818 -0.047482327578314165 2.1539968250310753 1.6514803777596081 104 83 20 0.62935221385884765 17 1532 41 1493
1732 0.099258420891273264 0.9949204749153262 1.7138703383207989 0 0 0 1.4005726331597659 46 1608 7 1370 95 1452 97 1342 17 1553 51 1296 36 1138 30 1159
2010 -0.50871246023600802 1.8922533240294981 1.6294676543343014 255 214 62 0.053010435010908623 87 954 94 824 40 846
1475 0.30699039511657394 2.6580045348301162 1.5050131122165982 88 88 83 1.268221956974938 98 1104 91 1145 9 1516
6189 0.75932578243452375 1.1305435789445017 1.4289084321554726 255 252 65 0.35609284797251495 70 849 42 468
1102 -0.60895268777833589 1.8657306611276114 1.4387518466967297 63 59 62 1.6309858683226608 36 1168 30 1184 90 1251 50 687 67 716
1604 -0.85871812120897295 1.5564947480252318 1.3179936910578554 167 129 32 0.10451314362464953 46 38 55 60 64 167
1190 -0.67914197908170737 2.1113152371563957 1.3707821239510951 207 160 48 0.36312713087386772 51 1253 90 1200 98 1258 83 1245 91 1299 9 1584
6277 -0.58739771707551014 2.7426069723553366 1.4844001307524437 79 84 79 0.15983661189080364 62 492 65 899 74 457 37 479 1 732 38 367
5904 -1.001900619309168 1.862926873098441 1.5365997841063261 79 80 99 0.074129556946407119 8 471 73 426 35 366
817 0.035062496944399557 2.104179428750919 1.6532493876153607 71 55 10 1.1826702147372843 95 1412 41 1490 51 1275 90 1203 98 1259 83 1233 79 831
2009 0.54431232904331328 0.88206664952526737 2.1497124794344473 255 250 75 0.89863213000496367 87 947 94 822 40 849 26 744 60 365 18 960 49 985 91 749 3 607 23 1044
1474 0.27939527571030548 2.097476392311481 2.0718175900321274 106 67 11 0.67494039687171326 83 799 91 1086 9 1311
6188 -0.77258125293280189 1.7629295682643631 1.0406667115050623 255 232 75 0.16597857717770553 92 856 42 444
1101 -0.60895268777833589 1.8657306611276114 1.4387518466967297 63 59 62 1.6309858683226608 36 1167 30 1183 90 1250 50 686 67 715
1603 -0.48034539349969035 1.99528415117546 1.4510631496635646 253 213 58 0.49105739927333764 95 724 97 215 17 778 46 796 9 781 51 910 36 798 30 805 90 819 98 794 83 765 91 815
1189 -0.1696875563147722 1.7819329055830819 1.729489808416498 165 137 59 0.70292432924583337 36 1100 90 1198 98 1274 83 1244
6276 -0.6086685991302655 2.7071032216404847 1.5461588074038379 77 81 75 0.24514306388771007 62 491 74 456 37 478 1 731
5903 -0.54485093639844639 1.7634182869349146 1.8954844065884784 189 195 218 0.22792214259771945 8 468 73 425 35 373
816 -0.015871157031787739 1.8023963914616321 1.5936222716281305 166 135 37 1.2833759620581489 97 1289 41 1488 36 1101 30 1126 98 1210 83 1113
1730 0.58666971243677901 0.87753512761611774 2.2291077529833121 0 0 0 1.3363742710121425 91 1225 9 1457 7 1252 46 1517 55 1439 40 1177 94 1178 26 922 60 926 24 1190 94 1227 53 971 15 1104 79 763 82 961 18 1161 70 941 13 946 49 1162 3 887 23 1104
6444 0.59959914773580436 1.8840701028348159 2.8107746327887519 250 227 176 1.1011776059653682 99 755 75 724 89 584
1473 0.49257258737696963 1.8243026869521923 2.8329029042902887 218 201 161 0.11775410239816919 83 791 91 1080 79 670
6187 0.02306148880267634 1.8988300959797364 2.7414120753927391 91 61 50 0.11986079656735665 84 462 42 351
1100 0.94673125926851676 2.570105743614413 2.1515241587273723 0 0 0 1.5343193284725316 36 1162 30 1178 77 828 79 869 58 826 13 1087
1602 0.49481995913620569 2.460207640962083 1.8242161805060051 213 198 163 0.43544397911105159 17 1333 46 1372 9 1412 95 1108 97 1016 51 995 91 1130 87 1278 94 976 40 1149 24 814 93 1050 18 1023 23 952
6316 0.38299707554855994 1.0525065347693696 1.5148764564646073 96 103 123 0.28359139371882192 65 926 1 690 20 439
5902 -0.18593240142114187 1.6830764046861757 2.0697163585350502 205 207 230 0.036844906722380513 8 460 73 419 35 369
815 -0.92298129431719556 2.850169996355393 1.3672625036513613 126 128 119 0.34388041136345937 41 1470 7 1290
1729 0.43154738449796215 2.2357232705350758 1.6770692928266235 5 4 5 0.81456816649963648 7 923 95 831 41 1116 36 834
2007 -0.46628948439364215 1.7283567812549228 1.440218154001552 255 211 55 0.30078009149935153 87 946 94 819 40 841
1472 -0.54629534119178702 2.0078110015530952 1.4282671150260786 254 224 64 0.16373700600756283 83 1003 91 1051 9 1275 49 804
6186 0.66265032639396482 2.4139783981121989 1.8123334081579219 153 96 65 0.28350450090531887 70 213 42 139 99 202 75 428
1099 0.6774904210562156 1.6670094388429442 1.6415461708546772 0 0 0 1.004605143688152 29 1243 36 1161 30 1177
1601 -0.66033579548752652 1.6343699191581267 1.1949273985654296 254 224 63 0.86839974916113816 95 1006 97 643 17 1262 41 1255 51 871 30 47 36 59 46 1230 91 755 9 729 98 20 83 18 91 21 55 1383 7 1175 64 1137 87 1207 94 1072 40 1075 26 1040 60 1055 24 989 53 1018 15 911 93 989 82 996 5 1115 34 1084 54 1038 4 1057 68 901 32 982 59 1015 11 945 21 1028 70 818
1187 0.4497621339404535 1.9430481247308491 2.0441231643208186 135 122 98 1.9287547245728429 51 1274 90 1182 98 1236 83 1215 91 1302
6274 -1.0112327609261913 2.1698359509111698 1.7556654865667394 114 101 30 0.31046225801652522 62 478 74 488 37 466
5901 -0.49499782827799116 1.7888071340001006 1.7156678439686943 112 72 10 0.22125268081849339 8 451 73 414 35 355
814 -1.0867230885095436 2.6685556564392718 1.5995688259307705 121 122 114 0.89403933661914869 17 1441 41 1468 51 1116 36 1036 30 1005 90 1043 55 1421 64 1222 60 1004 82 1013 34 1098 54 1114 43 991 59 1138 76 1110 25 1120
1728 0.68193079840637738 2.1769557979986405 2.2420993023729223 229 214 176 0.2190598110207603 46 451 55 299 7 743 98 214 83 209 91 278 9 528 87 691 94 603 40 601 26 530 60 511
6442 0.37316212413002953 2.0624596067743837 2.1427866079304971 254 222 61 0.14875028490070119 99 647 75 600 89 568
2006 0.38290567115076152 0.92176613319676959 1.6264483833829209 15 12 8 0.27858668449893953 87 944 94 818 40 843
1471 -0.7248275659847464 2.0589728658103548 1.1170712212083798 66 75 104 1.1545961810157912 83 1187 91 1045 27 570
6185 0.44642079777097349 1.1405929327104349 1.6730412917846202 255 222 53 0.89612950198803476 52 1037 63 873 89 737
1098 -0.28994648557088809 1.2935403206603775 1.8441824865441523 0 0 0 0.88735939353554416 97 1354 30 1175
1594 -0.84179893062419109 2.0325087114667348 1.165464059116031 0 0 0 1.5052140561877934 83 1210 9 1535 79 711 67 498
1592 1.4192394074341972 2.1543489613867619 2.1983815967180353 0 0 0 0.20862950861119206 17 1312 9 1515
1591 -0.79797770795908596 2.492265206615611 1.2007100500265671 0 0 0 1.1610671266052393 91 1247 9 1488 94 1194 40 1187 87 1333
1590 -0.85016297921144346 2.4345996757485349 1.2187735570157614 87 105 143 0.21855469154770873 91 1180 9 1486 87 1237 94 836 40 859
6304 0.2070702632453158 0.98637769266951902 1.7065982745527672 122 134 167 0.17039528689292976 37 178 1 376 38 161 20 182
1588 0.51702079506880805 2.6027493999873981 1.6962810859992021 87 87 82 1.5248809186555352 91 1148 9 1450 55 561 40 337
1586 0.51973881527349475 2.4565403689454266 1.6854721726560831 98 66 49 0.41809581284216679 41 1419 9 1427
1584 0.78997133371811878 2.1795090503070953 2.232767454008858 232 216 177 0.24803939254704835 46 1300 9 1356 55 1252 7 1041 87 1090 94 969 26 832 60 815
1583 0.72781079862773934 2.1988571880669872 2.2046968651735321 232 216 176 0.3134264823206282 46 1301 91 1109 9 1354 55 1263 7 1045 26 836 60 821
1580 0.87632302169648124 2.00597497413714 2.4581183574525536 236 218 178 0.48999052382818115 46 1285 9 1339 55 1224 7 1005 87 1067 94 944 40 956 24 1066 15 830 93 1058 18 1028 70 880 23 1083 42 700 99 879 75 848
6294 -0.87614729008002645 2.3645896538741522 1.675147828750237 0 0 0 0.21640388444080799 2 643 74 379
1579 0.50798012565362949 2.1279412028165021 2.2883755786092519 239 219 175 0.30305243376768154 91 1096 9 1336 87 1022 94 902 40 915
1577 -0.31899259510280314 1.8545397829252857 1.5182670365918296 54 47 45 0.97525505892548359 91 803 9 1272 7 1196 26 979 60 985
1575 0.68781189657539898 1.0668892153772158 1.2814204072654352 255 252 84 0.2413917306022996 91 747 9 1227 7 1266
1574 -0.1723164253626559 2.8237963518079257 1.3559200928755115 87 87 82 0.98094878239226713 46 1424 91 1142 9 1215 49 1060
6288 -0.17661235468643732 2.4666193291612135 2.0628798937918651 45 33 22 0.83923118367625005 62 622 74 578 37 556
1573 0.35307855391337312 2.5428042425222515 1.5974729359608102 88 62 48 0.45585191574507855 46 1399 9 1213 55 1344 7 1132 87 1098 94 971 40 974 60 914 24 641 93 451 70 328
1571 -0.19036738251698401 2.6548135195139926 1.5618971313203793 14 16 16 0.053554424498588001 91 951 9 1190
6285 -1.0045261915068824 2.3365890021138385 2.1787767879142295 187 174 139 0.098295686600776214 62 600 74 557 37 531
1569 0.81220304070471772 2.018485407510942 2.4566919575810409 236 218 179 0.35565911667344557 91 883 9 1165 79 385
