# 3D point list with one line of data per point:
#   POINT3D_ID, X, Y, Z, R, G, B, ERROR, TRACK[] as (IMAGE_ID, POINT2D_IDX)
# Number of points: 376, mean track length: 5.2039800995024876
6345 -0.70405031179141253 1.6882417171256539 2.5958995607346713 158 154 114 0.15216379717111295 60 1223 79 422 26 1163 20 1109 27 1023 53 375 93 353
6346 -0.88552731914891325 1.4932810015363436 2.6448674775809651 51 98 51 0.26302397680396644 60 1225 79 435 26 572 20 1100 53 392 93 370
6350 -0.61845074320219595 1.8298635677574697 2.7124311554574425 156 142 125 0.12046763961699768 60 1259 79 459
6351 -0.69875535009270495 1.7460169392434615 2.7211252250651219 165 168 178 0.24456803303258337 60 1258 79 462 26 1226 53 438 18 393 93 389
6352 -0.9133465444954737 1.4851451067260486 2.7851963455738482 183 182 192 0.39816790300159227 60 1250 79 463 26 1618 20 1558 27 1419 53 449 18 414 93 415
6353 -0.72771590759784599 1.7260075493263853 2.7505145742454964 141 130 118 0.34435738649997966 60 1268 79 468 26 1236
6354 -0.99287541646045563 1.4609517128418836 2.8730130712735966 189 188 195 0.33669471848309562 60 1276 79 491 26 1647 27 1442
6355 -1.0251410895656861 1.5349238482862038 3.3738378231307662 236 247 255 0.47954495732944924 60 1289 85 552 79 496
6357 0.066135669194396632 0.43798343877305745 1.7857635047152576 150 155 112 0.16457634385299424 100 598 79 534
6358 0.14714934229408891 0.50566356127493739 1.7936483361160354 46 84 44 0.4484074223949136 85 1031 100 1006 79 536 93 42 7 1075
6359 0.094828476610711712 0.48126765404016714 1.8072204637674658 51 93 48 0.17436057079390041 37 1896 60 1345 79 538
6360 -1.2495142901480161 1.6954393476878371 1.1608113516682483 214 221 238 1.1085180062001838 82 1052 79 556
6361 -0.12735747509419659 0.47400891801753692 2.071014470698044 43 84 43 0.11528123118587459 60 1402 79 580
6364 0.0010797558926715109 0.5770099095726926 2.086071827147586 46 86 44 0.056186282478019177 60 1406 79 587 26 1378
6366 0.30027583953018389 0.78219441467091622 2.1179464365679572 46 81 40 0.075344188443450921 60 1413 79 593 27 1228
6369 0.19293976437646138 0.73076101595577314 2.1439153997622578 46 85 45 0.13179446382093907 60 1419 79 600 20 1318 27 1232 65 531
6371 -0.098437110081049842 0.56874362528552713 2.21410986123258 48 90 48 0.13813180785689858 60 1436 79 613 26 1400 53 577 65 553 18 560 93 544
6372 -0.096046378343266431 0.56744337277405887 2.2150412198361327 48 90 48 0.2624576701554428 60 1437 79 614 26 1401 65 554 53 578 18 561 93 545 80 434
6373 -0.09668584834639754 0.57701384849695858 2.2377755674306377 170 174 128 0.1445522116006793 60 1442 79 619 26 1404 27 1241 53 581
6375 0.07058628006686786 0.69797320779210215 2.3019879715672755 74 104 63 0.15348867972926838 64 570 79 632 65 566 53 595 18 573 93 559
6376 0.033498395885110943 0.68871980695111656 2.326957613365189 112 131 88 0.26027831030031273 60 1463 79 635 27 1277
6377 0.10741270818009924 0.73517694284166457 2.3735225359205416 117 155 96 0.21282728436985326 60 1469 79 641 20 1371 26 1446 27 1285
6378 0.098893519364479709 0.73267085477987981 2.3969349251755618 64 129 69 0.44288495312820686 60 1476 79 643 26 1755 20 1699 27 1553 65 165 53 605 18 583 93 570
6379 -0.14597309198979674 0.58671423410103152 2.3881252924452112 51 99 53 0.045522963740373561 60 1477 79 644
6380 0.53801468514429907 1.0062095627788514 2.4731621469013638 222 233 253 0.31919758070925625 60 1482 76 701 79 649 26 1762 20 1703 60 1830 53 620 93 580 93 840 61 1144
6381 -0.056751656506058394 0.69350761790912574 2.6323747962025896 152 156 167 0.44855001509392578 60 1516 79 675 26 1469 53 637
6383 -0.2127870687767803 1.7308961937130467 2.4474488373912475 251 244 153 0.23011017124467062 60 1612 79 754
6384 -0.66971565698048297 1.135098978223875 2.5794635393162371 247 234 135 0.024528711488427314 60 1592 79 757
6386 -0.39633064799445433 0.55916452185572529 3.2163257573115147 196 170 131 0.61068964099826206 76 891 79 785 65 763 53 989 52 929
6388 -0.90330635571306828 1.1171586348124409 2.6906502326455004 24 45 21 0.55080813606782053 60 1157 61 1038 79 815 20 1474 26 1545 53 730 18 344
6389 -0.87549224724457286 1.3135594444662253 2.5889679861183952 90 146 70 0.2264917166709326 60 1660 79 816 53 720
6390 -0.15454891731929543 1.9610270734269661 2.6337906465031709 242 248 255 0.30977713588264277 60 1682 79 833 53 736 18 320
6391 -0.95358523112026139 1.3976598770378641 2.6096252117010637 63 113 56 0.46981956203747915 60 1694 79 843 26 1570 20 1501 53 365 93 706
6393 -0.91571142702707942 1.4390062851702723 2.608607058091482 61 109 61 0.26476777746167229 60 1203 79 845 26 1574 20 1504
6394 -0.79942248018941586 1.5724533931774241 2.5944448440847383 145 143 103 0.17896768521205669 60 1699 79 846 26 1584 20 1511 53 748
6395 -0.914918559732119 1.4517561819122571 2.6353441104286994 50 94 46 0.32163078236842746 60 1217 79 848 26 1583 20 1515 27 1374 53 757 18 717 65 433 93 715
6396 -0.91441987706783756 1.4516468653763042 2.6357259401741024 50 94 46 0.36065295384859669 60 1218 79 849 20 1516 65 432 53 758 18 718 93 716
6398 -0.77262552283452768 1.6285854625335134 2.6515705527545879 54 109 59 0.33693929290794811 60 1232 79 860 65 424 18 722 93 719
6399 -0.7736774937262817 1.6286235418655384 2.6507464480846372 54 109 59 0.37659339353201682 60 1231 79 861 20 1535 26 1181 27 1038 65 423 53 763 18 723 93 720
6400 -0.47112648276214547 1.9008859976258909 2.6763563556851246 183 180 187 0.36884581174716397 60 1240 79 864 26 1902 20 1836
6401 -0.45778195398375787 1.914311442261025 2.6821699213293324 82 57 30 0.31244464311859493 60 1721 79 865 20 1839 26 1905
6402 -0.36516269996242473 1.9483175864380169 2.7218517738066512 216 224 243 0.44412097082851931 60 1241 79 866 20 1843 26 1910
6403 -0.39675121103767019 0.63313805712958204 3.5748296740192713 255 253 208 0.48040987809994545 76 1207 79 867 65 1027 53 809 93 966 19 1437 41 822 9 1128 94 671 22 713 56 497
6404 -0.97845877524732605 1.3886929307163298 2.7235558339310018 133 133 92 0.22915826230688879 60 1233 79 870 26 1596 20 1814 53 1006
6405 -0.72140569242880626 1.7313290940309487 2.7788064560332031 186 182 187 0.25055875399207478 85 993 79 887 26 1245 20 1584
6406 -1.016657582796602 1.4368069386731623 2.8780288495421971 81 61 41 0.24475290999198665 60 1739 79 900 26 1646 20 1587 27 1436
6408 0.26500759798164808 0.40250042309522871 1.5933110909264463 101 84 55 0.15205804396606493 60 1750 79 910 26 1675 20 1619 53 819
6409 0.25330441990773866 0.41110230068465031 1.6173171318399764 216 219 232 0.27670898392288312 60 1752 79 913 20 1624 65 827 53 821 93 773
6410 0.098275835380059032 0.46178530276753832 1.7833973967413657 53 95 50 0.19914666050076113 60 1764 79 921
6412 0.039219861213825223 0.50656498701695218 1.8974127506655525 44 81 43 0.14064471839468551 64 867 79 934
6413 0.31171029321817306 0.74622439135524188 2.0246873262321405 53 89 43 0.10170976698064917 60 2011 79 945 53 857
6417 0.13734674712645115 0.70666550677259987 2.1951949641979098 45 84 44 0.0033252421812480027 60 1808 79 957
6418 -0.14925330829026734 0.52429241428347162 2.204585123126289 148 152 106 0.073725188973716202 60 1810 79 960 53 875
6419 -0.23559331097083258 0.41540131806920311 2.2412857476843757 129 133 89 0.2953761583559768 60 1433 79 961 26 1397
6420 0.24541069592779166 1.4335155131289563 2.0505544415511783 246 227 192 0.28194162418494323 60 1831 79 972 65 548 53 585 18 564
6421 0.47692492730211478 1.0178398765993366 2.6137149325294113 206 213 229 0.45166023549950279 60 1840 79 992 26 1981 20 1917 65 592 53 912 18 609 93 599
6422 -0.55768581434221409 1.3975343645381197 2.5014181490552096 104 163 81 0.28264028365894134 60 1897 79 1031
6423 -0.84701151931986896 1.0917962876252756 2.6013434455723363 248 240 218 0.98411952471119479 60 1902 79 1037 26 1809 20 1931 27 1584 53 949 18 904 93 894
6424 -0.86018445884030237 1.0806989850907749 2.6047734871136581 100 77 52 0.45416590076139546 61 1014 79 1038 53 701 18 676 65 751 93 666
6425 0.0060204491799297323 2.0227046029779685 2.6352055466396425 114 88 66 0.65840366575305787 60 2121 79 1061 26 2134 20 2048 53 972 65 319 18 678 93 681
6426 -0.41633835417244069 1.8514052973721913 2.5145291099417681 91 130 81 0.8230114334091605 60 1942 79 1066 65 729 18 673 93 670
6427 -0.76063726966175949 1.6180747842601708 2.587164160832311 150 146 105 0.34715619676202969 60 1951 79 1088 26 2027 20 1946 27 1774 65 1007 76 546 53 1135 18 926 93 915
6428 -0.94308221975137974 1.4166721028853357 2.6343558166553325 50 94 46 0.35137293255823532 76 959 79 1090 26 1864 20 1796 27 1373 65 1018 53 986 18 936 93 921
6429 -0.94112374002076704 1.4130038555696383 2.6365430087645088 50 94 46 0.21239293814009011 60 1698 79 1091 20 1797 26 1865
6430 -0.63126448331993135 1.7905869625492361 2.6687893631284809 184 171 167 0.10969132454147994 60 1722 76 944 79 1110
6431 -0.65919787199440016 1.7684765787917252 2.6774192891615103 210 199 197 0.22178351234945332 60 1963 79 1111 26 1895 20 1830 27 1649 65 1013 53 1002 93 931
6432 -0.89014883873057982 1.4814977584562499 2.7318821316986779 58 122 70 0.47935260686672276 60 2142 79 1113 27 1785 53 1010
6433 -0.65835106724640746 1.7912381755104307 2.7525583202942085 172 174 184 0.2383956041339414 60 1973 79 1119 53 1020 93 746 65 438
6435 -0.036005673011108769 0.35868813689789047 1.8045251889294509 56 109 56 0.30202716062408907 85 1290 79 1137
6436 -0.29531468703802455 0.19582122374895397 1.8419304690774108 217 204 191 1.3375005747383515 62 455 79 1138
6437 -0.80223544963558391 1.032077816576416 1.5854998882843225 45 80 43 0.42669050607330083 49 1249 79 1150
6443 -0.13947441634310878 0.47744373580784888 2.0908556991033795 43 80 40 0.13032984713662674 60 2018 79 1159 26 1952 65 1075 18 1011 93 1000
6446 0.0069812563085109988 0.63295845663458994 2.2095617829701779 49 91 48 0.15418257789787554 60 2027 79 1169 18 824 93 815
6449 -0.082782085287712318 0.65110978017831611 2.5902712722420209 83 67 45 0.53161874142420928 7 1608 60 1841 79 1199 26 1770 20 1913 80 834
6451 -0.42295445274943616 1.8761932030272357 2.5700559338556834 165 183 134 0.56705063355279939 60 2137 79 1261 53 1130 18 917 93 911
6452 0.070246854312687818 2.1087046426684348 2.8501625922187137 199 203 214 0.51781880884121056 60 2264 79 1267 53 1008 18 721 65 367 93 728
6454 -0.70283019990200579 1.7009357661497231 2.6795321921083772 56 114 63 0.45699273685656927 60 2144 79 1272 26 2040 20 1824 27 1645 65 1181 53 1146 18 1100 93 1196
6456 -1.0222768742514647 1.4392450969590611 3.1175230924488231 78 54 29 0.79866548881935384 60 1984 79 1287 20 1859 26 1663 27 1146
6457 -1.0247124031562118 1.4148934785458043 3.1419992826796155 173 167 165 1.3748903595897439 60 1745 79 1288 20 1603 53 1344 14 244
6458 -1.0266656764804938 1.5009077343711281 3.3478242555186135 188 164 134 0.64189497184180377 60 2155 79 1289 53 1168 65 1206 18 1118 93 1108
6461 0.34867281416206503 0.66045595930518319 1.8462870725126828 208 203 149 0.15546500808459174 60 2167 79 1294
6464 0.41718932844177076 1.0456691845808936 2.2425608745823711 0 0 0 1.6085284375103373 82 1543 79 1315 53 1359
6465 -0.31964157143216515 1.6098685806929711 2.4542367259195808 244 244 148 0.51064561041921441 60 2231 79 1341 26 2109 20 1929
6466 -0.6744999558349154 1.4646065061938898 2.5236203001157502 243 231 139 0.15985037235521532 60 2241 79 1346
6467 -0.071944405822301924 1.9707210087453619 2.6496769331056109 232 239 255 0.46119962525952851 60 2250 79 1358 53 1244
6468 -0.45861714641972501 1.8578699321058925 2.5653980169415975 67 125 66 0.36967505712064008 60 2255 79 1359 20 2106 27 1954 65 990 53 1245 18 918 93 1079
6469 -0.97094037272667577 1.4046553141837448 2.7417936963118814 52 118 66 0.51559286357756795 60 2140 79 1371 26 2132 20 2049 65 1196 53 1252 18 1203 93 1203
6470 -0.94906647836723046 1.4496819433357335 2.7573447353975951 201 202 212 0.86465300975733506 60 2269 79 1372 65 1197 53 1254 18 1204 93 1204 13 854 71 822
6471 0.28767368158082085 0.40115560381562765 1.5533567085037474 224 199 184 0.95259363992850354 61 1721 79 1387 26 2154 20 2070 27 1907 53 1170 18 989 65 1209 93 975
6472 0.19264083802603299 0.36786566676797172 1.6539039538459437 101 117 115 1.4657159431670956 60 2278 79 1394 65 1324 93 1210
6475 -0.25454672697224506 0.38991672936616545 2.2654385499464422 107 109 77 0.47799510790881083 60 2292 79 1411 26 2088 20 2080 27 1844
6477 -0.65931003860357396 1.8324664390906473 2.8273577150100024 0 0 0 0.43474996515905528 60 2324 79 1465 26 2227 20 2123
6478 -0.079869749330813755 0.61580973186932053 2.3421738669341727 51 98 52 0.64001069968582269 60 2341 79 1475 26 2244 20 2141 27 1994 65 1341
6479 -0.076647546201490974 0.61195912729133073 2.3430759637810659 51 98 52 0.45900346493826172 60 2342 79 1476 26 2245 20 2142 27 1995
6480 0.19587825828065816 0.82698386746706976 2.4809383601670434 193 196 209 0.95332267076820099 60 2344 79 1478 26 2249 93 1305
6481 0.19804031507112133 0.82494166249673639 2.485308662034047 193 196 209 0.97456957231691477 60 2345 79 1479 26 2248 20 2146 27 1998 53 1363 93 1304
6482 -0.0061764415167770859 2.0214793301978937 2.6718870656910578 159 139 120 1.1409575217135608 60 2360 79 1501 20 2158 53 1385 93 1263 65 1378
6484 -0.023962996787943093 0.42348903537781635 1.8542901831521521 48 93 47 0.45807965512436372 60 2378 100 1593 79 1520 65 1469 53 1352 93 1291
6485 -0.12912212180920479 0.54649517068306119 2.2214031158301388 52 92 51 0.43999128252983999 60 2443 79 1529 20 2178 26 2289 27 2029
6486 0.18382170674996343 0.84187320257635501 2.6409272708723281 0 0 0 0.97612112172676346 60 2349 79 1537 65 1421
6488 -1.0296379810736189 1.3947385889393307 2.8097808078158719 81 58 36 1.6454595161712264 60 2368 79 1561 26 2221 20 2114 85 1543 27 1887
6489 0.21717513655582094 0.79487693554612027 2.3935022287934031 56 120 68 1.4485381211131174 60 2448 79 1576 26 2330 20 2227 27 2078
6490 0.4941893836608422 1.0317955990412677 2.6320707590893568 178 177 187 2.0687296781323257 60 2449 79 1579 20 2230 26 2332 18 1408
6493 -0.82304380285757894 1.3978451096018636 2.5576185572970269 225 211 121 1.2879588803175965 60 2474 79 1596 65 1512 93 1377 18 1332
6494 -0.11443501060804187 2.0204683042986704 2.7752714300270984 0 0 0 1.5651867829847883 60 2502 79 1602
6495 0.26281101804106222 0.39108219959581342 1.587647396274132 248 243 224 2.0929786562679924 60 2517 79 1625 20 2244
6496 0.48135638162292055 0.9707343293731634 2.5177167412702577 159 155 161 1.2252525248500441 60 2506 79 1626 26 2368 20 2262 65 1562 53 1483 18 1425 93 1408
6497 -0.86115021014722737 1.4968857251218188 2.6584888944919927 64 106 61 1.6052449913675986 60 2501 79 1631 65 1556 53 1488 18 1428 93 1424
6498 -0.85596792776720509 1.5000515419304978 2.6659914951016246 64 106 61 1.0417724541889772 60 2500 79 1632 65 1555
6499 -0.32406909035449605 1.9499709704378938 2.6656158420985441 234 239 253 1.6292449043437163 60 2510 79 1633 53 1480 93 1402 18 1387
6500 0.12535327983227332 2.1872670517387101 3.2491226902598487 112 103 94 0.92294020903466822 60 2513 79 1635 26 2378 20 2272 27 2123 20 2284 53 1494 18 1434 93 1430
6502 0.48801115092169522 0.61049749921450103 1.772341223161306 169 182 133 0.93591099587095439 60 2522 79 1644 20 2290
6503 -0.2094903555562613 0.31428975628278316 2.0110631989494285 118 119 77 0.34206415321903477 37 132 85 84 60 1378 79 566 43 1466 61 717 76 684 53 528 18 519 93 510 96 340 26 833 99 233
6504 -1.0037633848046985 1.4282618324371075 2.8098558356935315 179 179 187 0.40998968118408152 85 967 60 2148 79 1375 61 1355 76 1235 26 2048 20 2057 27 1889 65 1203 53 1259 18 1114 93 1207
6505 0.48023278444181505 0.91135215772794897 2.3852241304757338 123 130 142 0.85884183282507753 16 1329 2 1319 95 594 62 250 34 743 79 177 55 94 61 160 53 172 93 174
6506 0.2859680868247314 1.7460479388142331 2.4564950309225426 212 204 185 0.8337524291168944 60 1546 79 255
6508 0.15512066302913072 0.34979292425023334 1.6174741219719275 117 101 81 0.17164871901716316 60 20 26 19 20 12 27 8
6509 0.44763855600913849 0.5297730541404827 1.6228743119340436 159 160 169 0.3725024018145095 60 22 26 32 20 23 27 21
6510 0.3522904255891689 0.58843021557060171 1.7587075361832605 156 167 118 0.069029653288205567 100 56 26 67
6515 0.4697254199930922 0.78943102613343197 1.855389152853351 155 154 167 0.025411110293180255 37 173 27 90
6516 -0.062621892182419522 0.89479316456262481 1.7887383429860524 45 89 50 1.1080767276796575 8 296 26 120
6520 -0.22956602786347011 1.1292943118588588 1.7105525426893446 46 90 49 2.4385709005750997 8 123 26 133
6521 0.29417240537531558 0.6816380738943445 1.9155622727676471 54 89 48 0.072839544113631249 60 141 26 135
6522 -0.10087773816487411 0.4491015741737574 1.971075872388405 50 96 51 0.13416731493473227 60 169 26 139
6523 0.12511554886838547 0.60156020018515011 1.9567474301537129 45 90 51 0.061841983433225098 60 161 26 145
6524 0.0089491457299953388 1.4312338925641752 2.4853846224403879 0 0 0 0.07636852259875973 12 496 31 217
6525 1.046022005742117 -0.39566997071415905 2.4151610493176876 154 159 116 1.0496039098378056 79 48 26 149
6526 0.04050212320588209 1.472168494818946 2.4875597565758092 0 0 0 0.056398932738302633 12 519 54 410
6527 0.097376964890141013 0.59102775525420259 1.9772683276765519 48 91 52 0.0036496447131917509 37 176 26 152
6528 -0.1525638335773985 0.4366451268151656 2.0439492493942697 55 99 50 0.1208901419894343 60 193 26 155 20 126
6529 0.27429416585768224 0.7176450530967069 1.9830998010182987 162 165 121 0.015089238088611068 60 175 26 156
6530 0.27429416585768224 0.7176450530967069 1.9830998010182987 162 165 121 0.015089238088611068 60 174 26 157
6532 -0.13414483206729294 0.70092631194806398 1.9932284371089586 47 88 48 0.21974310558940383 8 421 26 175
6536 0.0077878309929421971 1.1978017896213753 1.88807007184818 212 208 150 1.5344454008748349 8 132 26 199
6542 0.30392868346838869 0.26707358350934857 2.3896319615012613 44 86 47 0.29846513721635337 7 153 26 235
6543 -0.13125988589961596 1.6315825590140032 2.4527105616325606 0 0 0 0.045728729698371245 31 91 54 344
6545 -0.11125355843963362 1.4610535011777419 2.4665930296749412 88 156 73 0.11413262699134065 8 118 74 410 70 73 30 73
6548 0.26886812563323931 0.28845474458947346 2.4604691080360306 44 87 48 0.736437384937632 7 170 26 260
6549 0.00088601605826531629 0.64319490631272502 2.2699185820647672 44 87 48 0.02613118529799284 60 284 26 261
6553 0.41702879790657815 -0.33703081369073784 2.8045580752270087 148 152 109 3.106217152958104 7 141 26 292
6554 0.41702879790657815 -0.33703081369073784 2.8045580752270087 148 152 109 3.106217152958104 7 142 26 293
6556 0.31255812748299411 -0.33177490482892108 2.8411689969790492 110 122 78 2.6131800625967703 7 150 26 310
6557 0.19756243575294524 0.49307696910418941 1.733551114161908 0 0 0 0.21366786901416424 59 44 61 48
6561 -0.031187667623286175 0.69901359792570128 2.6048743893445403 179 179 189 0.12695245495045557 60 368 26 374 20 950
6562 0.015326332988328813 0.73738737807035382 2.6206388483592709 105 92 60 0.26265419559148767 7 259 26 378 20 340 27 308
6563 0.26512948029912559 1.7411488257647769 2.4542084310157581 71 50 33 0.17940147541906407 60 430 26 428 20 390
6564 0.22570047652635594 1.7412314556238098 2.4494952900116513 240 230 212 0.23953663020820706 60 439 26 432 20 392
6566 -0.68557324071886683 1.5597050062495648 2.5219913666475011 104 165 83 0.11784101954330686 61 557 26 506
6567 -0.29261062613968991 1.8917350351390774 2.5075625688539871 182 186 139 0.15240756550617826 7 550 26 543 20 525 27 1003
6568 -0.94981564559794973 1.410659495565425 2.6434265972752029 61 114 60 0.18600741528127307 60 684 26 554 20 557 27 436
6569 -0.76088962034843122 1.6069194687094015 2.573389704305209 45 88 47 0.09042117382121366 79 405 26 555 20 1081
6570 -0.38739883800003694 1.8658226966629041 2.5192740512119021 44 75 42 0.16369655105870617 7 541 60 640 26 557 20 538 27 1009
6571 -0.27171641494693805 1.9102764132486594 2.5410773561836759 193 195 150 0.20474487177209899 60 627 26 567 20 549 27 476
6572 -0.80487910941440921 1.5760731516056337 2.6163845096665526 56 106 55 0.18311825646507712 60 690 26 575 20 572 27 465
6573 -0.80376799254225384 1.5752207526400079 2.6172973900504215 56 106 55 0.16349823580738479 60 689 26 576 20 573
6574 -0.77204627254173852 1.6154043237623434 2.609775197025034 152 146 105 0.16322722881496474 60 693 26 581 20 580 27 466
6575 -0.80154989216540029 1.5853151989263183 2.6283683010073018 54 107 56 0.12350582515944614 60 694 26 588 20 590 27 468
6576 -0.49166553931049806 1.841501402528666 2.5634185223775203 180 183 139 0.099160141821081044 60 674 26 597 20 1106 27 1034
6578 -0.50211530583920683 1.847478859421491 2.5935936293806789 54 108 60 0.15103369354131868 60 692 26 617 20 607
6579 -0.60008492280385328 1.7863389008248916 2.6086783189758238 55 107 59 0.15383313416001479 60 701 26 621 20 1125 27 506
6580 -0.6721866598312608 1.7707529716771087 2.6865398085286873 87 67 41 0.21990945026879197 60 723 26 667 20 681
6581 0.42668937763853632 0.52208659579832462 1.60912775237198 157 158 166 0.096765109772419464 60 804 26 763 20 22
6586 0.12207141207599068 0.61182877926380941 1.9824613293533231 44 89 49 0.028904743355932908 60 875 26 835 20 833
6587 0.068675762926707573 0.58704544209993592 2.0104045394624439 44 89 49 0.035345824554705557 79 85 26 838 27 761
6589 0.17950395414585529 0.67555942680843284 2.0411343927599024 169 170 126 0.1134876072925325 79 90 26 844 20 847 27 770
6591 0.95350854602378643 -0.3894500908681659 2.5449859965335717 45 88 48 0.89757870476525448 79 71 26 848
6592 -0.4240319145334977 1.4943574506329949 2.4758113155044823 0 0 0 0.22812509070998127 43 1212 77 1013
6593 0.52578593309182031 0.82247701467768175 2.0870464344223829 116 91 63 0.28733242066547415 60 880 26 857 20 855
6595 -0.32634235398086886 0.32781450575303261 2.2009450466874863 102 79 56 0.28510547108158729 79 122 26 860 27 149
6596 -0.23619301867330353 0.4053767250204785 2.2195998340986711 42 91 47 0.29539055321238694 79 607 26 864 20 1319 53 570 18 554 93 540 52 543 19 1287 52 808 22 576 96 563 71 588 13 620
6598 0.94385477307542653 -0.30619568877146186 2.6599676262216083 44 85 45 0.77194037902543777 79 93 26 871
6599 0.029907824207545654 0.63882575683589293 2.1895326288472354 133 140 95 0.091105092205095162 64 130 26 877
6603 -0.2446253696454358 0.44620295400222731 2.3158398322908442 129 133 90 0.18769947971562995 60 944 26 895 20 883 27 211
6607 -0.050002476208591218 0.64194450007512094 2.3797523022243561 151 155 110 0.10530073540670473 79 188 26 925 20 918 27 842 53 173
6609 0.24787512500425782 0.45600513474059889 2.521704595251685 48 94 50 1.718244377430505 83 113 26 933
6610 0.09274051576488844 0.72774458545513876 2.3680184223194169 46 91 47 0.21667518121511353 79 186 26 934 20 922 53 171
6611 0.15555412033568064 0.76032354417441017 2.3811257048102377 48 97 52 0.24586343511645722 60 316 26 941
6612 0.26327919282106355 0.86564159778952243 2.5399573086582188 114 104 78 0.22788803467175386 85 210 26 967 27 881 69 375
6613 -0.22027325275742446 0.57676776469699076 2.6015668397364413 179 179 189 0.15120691483648629 85 206 26 971 18 193 93 205
6614 0.034007016454253226 0.75302724497570073 2.6079233736468548 76 65 40 0.35216746860474274 79 672 26 981 20 1393 27 1304 53 635 93 601
6615 0.49453079792037175 1.0226292374981698 2.6110312260755175 177 181 195 0.19718549854352319 60 1000 26 984 20 955 27 906
6616 0.51440711539275774 1.0539062426199219 2.670644344586262 209 216 234 0.11359504593404683 60 1011 26 988 20 959
6617 0.27585414376764805 1.6401486950287609 2.3712743750739298 78 61 42 0.24843089202666935 60 407 26 1001 20 960
6618 -0.63547042288948163 1.4399707793661098 2.5080730928264634 253 244 140 0.24914500619318047 49 865 26 1065
6619 -0.87625564087831231 1.1092560293020448 2.6560329281991142 87 64 41 0.22640498193756933 60 1141 26 1075
6620 -0.61216968426925034 1.4937867677260794 2.5010467628568693 244 237 137 0.15230827116627407 60 1639 26 1077 20 1017
6624 0.038492343008012873 1.9838390482177284 2.530529024572894 212 216 164 0.036928139694485648 60 564 26 1129 20 1066
6625 -0.85066877084771242 1.5067737115890973 2.5873614529284161 74 114 66 0.36684996891334959 79 410 26 1133 20 1503 27 1369 53 742 18 708
6626 -0.94972533641440948 1.4013037171685532 2.6342434200592391 147 144 100 0.41373311558209497 60 1210 26 1136 20 1509
6627 -0.89162935239861041 1.4715118223730297 2.6156346910882369 51 99 54 0.29056801890783723 60 677 26 1142 20 1087 65 421
6628 -0.80834687982301134 1.5603200138237778 2.5897782965483946 50 95 50 0.18994703945878907 79 415 26 1146 20 1085 27 994 53 363 93 348
6629 -0.66910521331605277 1.6937605149900958 2.5440158110563789 83 117 67 0.3124822846688694 79 395 26 1147 20 1080 27 995 18 328
6630 -0.68589966651666379 1.6877014074269809 2.5621180208249892 45 85 43 0.14668596443169463 60 675 26 1150 20 1090 27 1000
6631 -0.4606323831698596 1.8449511817300313 2.5396276318366557 180 182 138 0.050727110677781823 60 666 26 1154 27 1019
6632 -0.62959192548292564 1.7445674467769472 2.5631823874262656 157 154 114 0.083349511345508484 60 1213 26 1157 27 1013
6633 -0.56767208254630885 1.7894269701452818 2.5564514880956404 177 175 132 0.10552936723024375 60 676 26 1158 20 563 27 1017
6634 -0.59770422617266583 1.7744738326687937 2.5693148921377813 50 98 53 0.31679070327231551 60 687 26 1160 20 1103 27 1026
6635 -0.59916049715385233 1.7752343883778448 2.5688196000127506 50 98 53 0.1600497610393703 60 686 26 1161 20 1102
6636 -0.60639822224833162 1.7715835539836475 2.5807939754536053 163 162 120 0.2244159763845546 60 691 26 1167 20 1112
6637 -0.96991724612583341 1.4026776893136275 2.7242841819277892 53 115 64 0.15779419868721975 79 450 26 1173 20 1126 53 423
6638 -0.9699172461258333 1.4026776893136272 2.7242841819277896 53 115 64 0.15779419868722833 79 451 26 1174 53 424 20 1127
6639 -0.48490699116246089 1.8491933959366003 2.5790282111492129 189 187 140 0.10623415939652761 60 683 26 1175 20 1528 27 1396
6640 -0.61413685680687458 1.774188063621873 2.596554171332583 164 162 121 0.15250948631221115 79 424 26 1178 20 1118 27 1394 53 377 93 351
6641 -0.61937080557294533 1.7744264295562782 2.6074295096997986 54 105 58 0.1111785616715647 60 702 26 1186 20 1122 27 501
6642 -0.051692465565391275 1.991754954926783 2.6571814811657801 125 106 82 0.1095218305136461 60 635 26 1190 20 1538
6643 -0.095085152690903826 1.9788708412157276 2.6796429611623291 237 242 255 0.39462041215674437 60 646 26 1199 20 1138 27 1099
6644 0.051742642770667792 2.0549796559221027 2.674056288320859 88 62 40 0.23458995220781426 60 636 26 1200 20 642 27 590
6645 -0.22610506621029916 1.9849121284787692 2.639835487001204 239 247 255 1.8286723180823059 64 445 26 1203 80 354 75 326
6646 -0.72875767229373256 1.7262644278256385 2.7516628842071 154 145 142 0.30143409512064839 79 467 26 1237 53 443 93 399
6647 -1.0280026204487194 1.5381888841742537 3.3690527647592265 237 248 255 0.43111541938210884 85 553 26 1286 20 1612 60 777 27 1471
6648 0.53848375922305547 0.63202519233550358 1.685236391920246 222 226 243 0.24803060475341793 60 1311 79 510 27 1169 65 28 53 23
6649 0.51692104598999888 0.6356529571632159 1.7802341739575944 73 105 65 0.40100002482869418 82 601 26 1319 27 1179
6650 0.18016741928301477 0.57750055569893854 1.8601870225302264 55 104 56 0.10443208477764872 59 1089 26 1334
6651 0.15625921654384142 0.63046877681585256 1.9886649672605254 174 171 120 0.24583861626202463 85 637 26 1357
6656 0.16077809961337536 0.67225545704797984 2.0643108862517678 44 87 47 0.020087629979260335 60 1401 26 1377
6657 0.5240468261159531 0.82048219098269293 2.0675791526779159 120 91 65 0.16976712521839232 85 656 26 1381 20 1307
6658 -0.13386302287888299 0.50340619725577307 2.1287802789934771 44 85 46 0.1731395458532079 60 1415 79 595 26 1382 27 772 18 98 93 111
6659 -0.13403701418517003 0.50351788784542773 2.1286735202663509 44 85 46 0.1869204302573057 79 594 26 1383 65 113 18 97 93 110
6661 0.37293446197182234 0.80834555047637147 2.1217422272810587 77 96 58 0.12796879729261262 79 591 26 1388
6662 -0.14732778268869387 0.51920242140401007 2.1800588976230451 43 86 46 0.050433896078622878 79 603 26 1390
6663 0.245465754224617 0.76216179273105245 2.1452307565842728 159 158 113 0.10641595182360142 85 678 26 1394 20 1323 64 560 27 1234
6665 -0.097801771694859568 0.5780057063884686 2.2371026875144073 163 167 118 0.11806287284865634 79 620 26 1405 20 1334 27 1242
6668 0.49486120365260466 0.90550968108032215 2.2576444647690708 130 136 146 0.39554009530645867 79 137 26 1417 20 1347 53 133
6670 -0.40215445416444601 1.3792299273386197 2.4768990543928968 0 0 0 0.0015900589404286218 34 898 59 874
6672 -0.13075954640558851 0.5873316728968192 2.5025383634225666 63 122 73 0.097884040477661846 79 654 26 1457 20 1379 27 1292
6674 0.53175964399018472 1.0616042147993594 2.6468455481735913 255 255 254 0.13396113334129353 60 1513 26 1476 20 1403
6675 -0.82372639753779453 1.0152787589093313 2.5493646897920579 125 96 70 0.25338988463726986 79 753 26 1491 20 977 27 911
6677 0.23882577076037192 1.7919903312767425 2.5321408800282632 56 59 59 0.16009122581152693 60 1072 26 1530 20 1454
6678 -0.19302912269260414 1.9168218649636128 2.5041738209133384 47 76 37 0.062335001626947273 79 780 26 1571 20 1493 27 1379
6679 -0.42119283987010186 1.8388535262134826 2.4937314425671659 241 231 140 0.501796642223308 79 809 26 1573 20 1494 18 292 93 305
6680 -0.62575646911064808 1.7327681062952136 2.534206265516159 79 115 69 0.10488165164485674 79 391 26 1581 20 1507
6681 -0.57498067696767741 1.7819702071595651 2.5470417896677886 47 94 52 0.19546867634464396 60 1209 26 1591 20 1513 27 1011 53 347 93 331
6682 -0.61940520362686735 1.7633426242612675 2.5762335879696527 49 96 51 0.14191870263339959 79 844 26 1595 20 1524 27 1388 53 745 93 345
6684 -0.39302006588366561 1.2875451403454441 2.5012616047876661 0 0 0 0.10294292293956929 35 502 55 414
6685 -0.60370915981710349 1.7908743560877729 2.6199958091439886 170 167 124 0.24636996465277219 79 433 26 1606 20 1542 27 1406 53 382 18 353 93 361
6686 -0.60367470600261652 1.7908366393147714 2.6201380015110614 170 167 124 0.25712766930852959 79 432 26 1607 20 1541 27 1407 53 383 93 362
6687 -0.078859666909349216 1.9844373498605326 2.6606078653152965 233 239 255 0.24485037218695477 64 447 26 1608 20 1540 27 1429
6688 -0.28161111572223146 1.958545170715652 2.6696233687261985 234 243 255 0.19831409195654606 60 1221 26 1627
6690 -0.70453825559397154 1.753300565554909 2.7528424803764455 176 178 188 0.34899451242182933 60 740 26 1644 20 1578 27 1437
6692 0.18324869373165134 0.31840762763156821 1.5197185986916601 202 154 109 0.41300356745660305 79 905 26 1669 20 1615 27 1474
6693 0.10136736839855101 0.3114120159263406 1.56005992146268 121 94 68 1.298265824217689 26 1671 20 1616 27 1475 80 619 75 585 46 1055
6694 -0.11918204651054841 0.36089013972182588 1.8906830080587533 58 112 60 0.19920102765240827 79 1142 26 1697 20 1635 65 1056
6696 -0.11015498611166115 0.38105713932497315 1.8997111089988674 158 155 107 0.31458672277947458 61 1397 26 1700 20 1636 53 840
6697 0.49498374242769022 0.72252944292698218 1.9187389803104209 119 152 103 0.34581360329226968 85 1305 26 1705 20 1643
6699 0.26503728478348126 0.69099181930619702 1.9638530866293047 53 92 51 0.26808434104258871 64 881 26 1712
6703 0.25389454635018854 0.25367291816615334 2.4068686755088251 161 164 119 0.054169153544359125 7 1372 26 1732
6709 -0.6918939135654828 1.5956420908405073 2.5266460979661058 224 217 129 0.17166815245977937 79 1067 26 1849 20 1784
6710 -0.35817281764740683 1.8425381069463349 2.4909137924305913 68 127 67 0.42545070536760049 79 1053 26 1858 20 1491
6712 -0.28912800812926309 1.9107594697855017 2.5434336279274632 53 94 47 0.29078660934790923 79 813 26 1873 27 1780
6713 -0.76555505951578251 1.6294367975841801 2.610484549900395 52 103 54 0.34275407755723225 79 1092 26 1880 20 1807 65 1011 76 948 53 985 18 1095 93 920
6714 -0.75818134415202576 1.6415991529954301 2.6417990644273615 134 135 95 0.16554129618589028 79 1098 26 1888 20 1955 65 1012 53 1142 18 1097 93 1086
6715 -0.03759874382393158 2.0116192074831791 2.7074876192996258 218 223 239 0.49674591366995052 85 974 26 1897 20 1827 60 1196
6716 -0.45887042100325731 1.9457347201803421 2.772260649289187 214 221 238 0.87984995279265332 79 464 26 1918 27 1684
6717 -1.0271733852763185 1.4468711318641883 2.9710808407291074 178 180 189 0.49393070556796947 60 1743 26 1922 20 1857 27 1682
6718 -0.98338613417500009 1.5142555083599447 3.4639007144616847 0 0 0 2.1318799359988043 7 1534 26 1930 27 1695 75 759
6719 0.17477372156479892 0.50898843969421526 1.7960043021859906 161 164 116 0.10110414004619114 85 1293 26 1938
6720 -0.0055772456383627669 0.4706682293089941 1.8897056428086501 189 181 128 0.19756123660558433 79 1144 26 1940 20 1873 27 1711
6721 -0.1978227662223366 0.29154737109854134 1.949198165488514 113 118 76 0.34059765526707092 79 1298 26 1941 20 1875 53 1179 22 721 96 801
6724 0.21347692397415641 0.6539782827406494 1.9477153986784179 45 89 50 0.22479785203608493 79 1148 26 1947 20 1881 27 1499
6726 0.18330129826450897 0.73063484741302887 2.171062190355372 162 162 116 0.076071032237450889 79 1167 26 1958
6727 0.24527638042993738 0.81775069027527036 2.3377052608799085 161 155 105 0.092035544491800181 79 1181 26 1967 20 1905 27 1738 53 890 18 832 93 828
6728 0.16463853781608032 0.75481935624804697 2.481727381770169 75 115 72 0.56947011121832036 60 2044 26 1974 20 1702 27 1741 53 905 18 849 93 582
6729 0.14737589649136407 0.80899491425247183 2.5649190809224391 174 181 194 0.52231046877287113 79 1194 26 1976 20 1710 27 1563
6730 0.088302707702698949 0.76166706480998825 2.5768521397155113 170 156 138 0.5869477828212416 79 1197 26 1978 20 2015 53 1086 93 847
6731 -0.32439472426960247 0.52340084281527244 2.6783614872641368 165 162 169 0.1331323789281251 85 1104 26 1980 27 1747
6733 -0.041777010521526665 1.9599592433309894 2.5141447321781412 50 85 42 0.36146690586158498 79 1041 26 2022 20 1940 27 1882
6734 -0.65979101092911852 1.7044085741750494 2.5473417400738274 84 107 69 0.25123543992360381 79 1083 26 2025 20 1944 53 1129 18 921 93 912
6735 -0.23444990013107589 1.9392726161433125 2.6195234546895003 80 170 100 0.29899311119889427 79 1080 26 2034 20 1956 27 1793
6736 0.033408126625424764 2.0416763483636333 2.6646628504792047 226 234 252 0.29518520026380735 79 1070 26 2037 20 1961 27 1897 53 975
6738 -0.68916788726663292 1.7394521913229122 2.6878337905076424 205 197 199 0.26014232363416906 79 1370 26 2047 20 1969 27 1799 53 1149
6740 -0.30792358102829676 1.9597194074796127 2.7294600665342275 224 235 254 0.024018865450842079 79 1103 26 2054
6741 -0.44771931053629693 1.9113415462578491 2.7293136978931272 191 192 203 0.20980860460440109 79 1275 26 2057 20 1973 27 1807
6742 -0.45055831933250123 1.9162882999331958 2.7253525774432115 191 192 203 0.19189752351490907 60 1729 26 2058 27 1806
6743 -0.74897336812222737 1.7440480968858274 2.8245493645016198 175 174 179 0.66978238871987406 79 1126 26 2059 20 1975 53 1163 18 1115 93 1103
6744 -0.0078745913942887182 0.50791892746059175 1.9520018872797871 141 147 103 0.51275907605874593 79 1301 26 2072 27 1830 65 1229
6745 0.31205769953277296 0.79887023821971315 2.1553511345479688 166 165 119 0.07264586548699109 60 2177 26 2083
6746 0.063926706839642702 0.70261007719217261 2.4661689691935713 83 133 83 0.6224194258621053 79 1321 26 2095 20 2011 27 1852 53 1204 93 1143
6747 0.30973782120623289 0.8427345703417165 2.44498073280129 51 112 62 0.81682500980650885 60 2193 79 1187 26 2096 20 2012 53 1081 18 1147 93 1023
6748 0.37151453784233651 0.87071823896163392 2.4446872402773607 67 114 68 0.64594470890171019 79 1185 26 2097 20 1910 27 1853 53 1202 93 1142
6749 -0.82211697702212572 1.4840879039592254 2.5868827757959978 179 186 104 1.8347079753495024 79 1451 26 2117 27 1615 65 1454 60 2362 53 1383 18 1335 93 1323 13 976
6750 -0.172643010828507 1.9237591984583344 2.5090148043528937 44 76 39 0.10761020627317691 79 1236 26 2119 20 2036 27 1881
6751 -0.82853966293682868 1.5616742728999315 2.7064123026581424 62 111 64 0.3035128020548874 79 1368 26 2135 20 2051 65 1188 53 1251 93 1089
6752 -1.0185868086608363 1.4453312455046428 2.9093701598544932 197 199 210 0.31878931521348641 60 2152 26 2145 20 2065 27 1898
6753 -0.49577032498716656 1.9169377574064075 2.7865001411385277 128 108 88 0.47803852814231057 79 1374 26 2148 53 1338
6754 0.19865898609478902 0.31641954384463428 1.4886267309901815 0 0 0 0.091523112193653694 79 1386 26 2153
6755 0.28435540639984708 0.46607059698579567 1.6581809152613658 57 124 73 1.2199175429264422 79 1467 26 2158 76 1577 20 2071 27 1909 65 1404 18 1211 93 1211 52 1256
6756 0.028104485897560719 0.97712753931962026 2.0495752020545162 40 83 43 0.28740325648661214 8 1676 26 2166
6758 -0.0073749711320464147 1.8549017438554214 2.4564436793147095 99 185 102 0.46633029912353424 79 1339 26 2198 65 1119
6759 -0.69069093761674627 1.6914146700109112 2.5902029252093466 147 146 105 0.17941405511183889 60 2260 26 2207 20 2104 27 1949
6760 -0.63645659569839874 1.7525429506960042 2.5908211526720493 50 98 52 0.40950373879978297 60 2261 26 2209 20 2107 27 1952 53 1327 18 1193 93 1191
6761 -0.76802553502014503 1.6424989671477983 2.6774642648504523 52 113 63 0.61792038511901648 79 1458 26 2215 20 2112 27 1957 65 1310 53 1334 18 1280 93 1275
6762 0.21955759475079509 0.79075081137502801 2.3038548992859509 42 81 41 0.58808406722440065 79 1474 26 2246 20 2143 27 1996
6763 -0.29445830898353387 1.8418290750940731 2.4748083090060313 248 237 154 1.4163443143711401 79 1552 26 2261 20 2194
6764 -0.4146517617988118 1.9293209028465037 2.7313881034874581 115 92 71 0.69893811142345097 79 1459 26 2267 20 2159
6765 -1.0329797986145195 1.5321218078077661 3.4799586452452034 237 247 255 1.3784686430874622 7 1918 26 2270 20 2162 27 2054 53 1399 18 1344 93 1335 80 1112 75 1087 69 876 47 706
6766 0.067537728196739699 0.39521443829179576 1.7532749296918819 179 173 119 0.50094997050205492 79 1514 26 2274 20 2166 53 1348 18 1292 93 1286
6768 0.37531212496551508 0.83879536026999635 2.293197432586334 107 112 74 0.95221030461362899 85 1657 26 2291 20 2180 27 2033
6769 -0.60423539130188919 1.8014215904310922 2.5895303258306206 162 167 123 1.0101771155290467 79 1558 26 2306 20 2197
6771 0.069145297582095019 0.6744827610480677 2.2366193490641 127 138 95 0.60471558509482803 79 1573 26 2321 20 2218 27 2069 65 1481 53 1455 93 1393
6772 0.068386087523531217 0.66975523820240535 2.2402420963408165 127 138 95 1.1808525497321809 60 2384 26 2322 20 2219 27 2068 65 1482
6773 -0.75700642466877122 1.6719984548049514 2.7634354764713724 179 175 179 0.98781348218719633 79 1641 26 2387 20 2283 18 1445 93 1441
6774 -0.10251977290052691 2.0362527637517323 2.7826413125197083 0 0 0 2.6371792617006879 85 1792 26 2388 20 2270
6776 -0.06426196096850853 0.43059057781891158 1.9038137659032883 30 55 28 0.26148063538492522 79 59 82 661 85 608 60 1368 26 817 53 65 93 57 100 60
6777 0.089549554125450362 0.39801556157117596 1.7333960446522161 171 171 121 0.68720070659126042 95 1369 63 1419 55 1491 49 1321 43 2214 82 1522 85 1460 61 1574 76 1412 60 2162 33 1065 79 1292 26 1934 64 1243 7 1710 20 1987 27 1704 65 1215 52 1101 19 1449 41 835
6778 0.11075798813482056 2.1967357474399933 3.2378166698197637 209 201 190 1.539352349318224 35 2543 100 1721 64 1565 83 1308 7 2017 26 2379 60 2514 79 1636 20 2271 27 2124 53 1493 18 1433 65 1566 93 1429 80 1204 75 1179 46 1592 39 1560 69 959 88 877 11 1294 47 799 5 955 15 849 32 834 45 866 42 708 6 967 47 794 92 602 58 529 72 445 48 630 24 640 89 420 97 476 91 466 21 425 57 643
6779 0.058382395645321779 0.59230984455972513 2.0370222355868357 27 51 27 0.17922139159991446 7 1360 85 1308 60 2014 79 1156 26 1948 20 1884 53 856 18 810 93 798 75 605
6780 -0.54956208547963625 1.803312776701999 2.5544887463881492 62 124 67 0.27045750695630721 85 1240 60 1949 79 1085 26 1877 37 1836 100 942 64 775 20 1803 27 1629 53 733 18 695 93 694
6781 -0.17397595023738313 1.9244656840979879 2.5080376268789797 80 161 91 0.4335823544740835 59 1014 37 1831 100 1212 85 1227 64 1205 7 1778 26 2118 60 2111 79 1237 20 2035 27 1880 53 1114 93 886 18 895 80 987 75 954
6782 0.11171302676691487 0.62464647564876785 2.0295633445087669 50 98 52 0.23774391356508537 60 2013 79 1153 26 1949 100 1283 64 1090 7 1584 20 1885 27 1718 53 1054 18 809 93 797 80 644 75 607
6783 -0.44852023124032769 1.8970038201697033 2.6458702704948216 248 237 238 0.4207811354326757 35 1820 59 1034 100 966 85 1249 64 1040 7 1525 26 1893 60 1716 79 853 20 1825 27 1652 53 388 18 351 65 765 93 363 75 744 46 1190 39 743 69 444 11 817 47 165
6784 0.087317916367704973 2.1652531142552847 3.1867416021477708 255 254 255 0.42457480432452915 82 530 60 1283 26 1665 59 1045 37 1864 85 1003 20 1605
6785 0.55119205081474565 0.69728636392324572 1.774910391104088 141 139 143 3.4954015640760892 7 77 26 74
6786 0.070339257885320111 0.49218169627872804 1.842937621050087 52 99 55 0.064904052427367701 26 88 20 71 60 115
6787 -0.50855522671615505 1.6849241162123019 2.4794630618498728 254 246 150 0.038561652738184356 79 361 26 1101
6788 0.18966564100878724 0.78384874252521497 2.3459552403827684 144 150 107 0.098115494999221509 79 176 26 1440 20 1367 27 844
6789 -0.10693309902501204 0.61103564972469071 2.3858994407321927 156 163 118 0.23474025896154382 79 980 26 1748 20 1691
6790 -0.44970265223755296 0.90657872393117767 2.6356146838185599 0 0 0 0.13100583748771688 35 1589 59 787
6792 0.2054653227879876 1.601385972847283 2.4268265387787706 177 159 125 1.1862024187223705 79 1326 26 1991
6793 0.20345681581564268 0.46697898178136465 1.7179186200483363 197 192 138 0.57479047742814504 34 1540 77 1666 100 1413 16 1947 35 2247 2 1874 95 1279 74 1373 12 1763 37 2341 63 1328 85 1461 43 2209 61 1571 76 1410 64 1244 83 1060 26 1935 60 2160 79 1131 20 1866 27 1705 80 794 75 790
6794 0.10471248025204004 0.31251663039489058 1.59963553729769 100 84 69 0.69346675720674211 26 753 20 6 27 3 46 475
6795 0.40760133230028911 0.51214871445212384 1.628249263683357 223 228 244 0.28040732242376432 100 26 20 25
6796 0.18516829553847164 0.43776018320326948 1.7033226747447909 68 134 79 0.070471681342162071 26 774 20 35 27 32
6797 0.49568281247063045 0.60583980754607092 1.7451095709680071 53 93 60 0.15937372396199392 26 60 20 54 27 61
6798 0.14484740053849984 0.52317840127958315 1.8198637970977261 54 96 54 0.073949825691884963 7 48 20 66
6799 0.089104839785834777 0.86996303088954174 1.7239614731460833 219 206 145 0.13646616132932152 8 808 20 67
6801 -0.10051886842667301 0.36847484412720721 1.8736493564024961 60 113 60 0.16583601528888461 61 92 20 69
6802 -0.10051886842667301 0.36847484412720721 1.8736493564024961 60 113 60 0.16583601528888461 61 93 20 70
6804 -0.19362021286953562 0.25567046707989549 1.9169363960482837 52 99 54 0.048911586139149574 60 122 20 75
6808 0.20387029824435901 0.6118618786217872 1.8852611663083161 44 86 48 0.12013729385475518 60 134 20 89
6811 -0.13526314973577711 0.40656933951295704 1.9683111456457301 49 93 50 0.10842463628890582 61 118 20 101 65 90
6812 -0.30356896635851044 1.1188206021482423 1.720700536084441 0 0 0 0.13364390660035808 12 202 26 144
6815 0.058003227575053697 0.55861758377749982 1.9676841234222457 45 87 48 0.014026407801880388 26 146 20 115
6816 0.15137755633158892 0.61466988334187522 1.9575933770883638 169 172 127 0.16600137645671853 7 100 20 116
6817 0.03716113388145826 0.54200297874926129 1.9760956999707948 168 169 125 0.061607411790342861 26 147 20 117
6818 0.42638273327370557 0.72942787929244557 1.9435894455398375 64 109 55 0.22482932159734292 85 629 20 119
6819 0.120103062194734 0.61789155902072668 2.0091528110918886 142 148 106 0.0722140450091356 26 158 20 127
6820 0.19323038504045165 0.6795469042473794 2.0315724709836833 41 82 45 0.014046236640241766 7 140 20 139
6821 0.19555720739113835 0.67692380370331773 2.032407993973079 41 82 45 0.037507129583925394 26 172 20 140
6822 -0.02396282135008973 0.54761373898384746 2.0628995431714059 47 84 47 0.057645746972506899 60 203 20 141
6824 0.49332745055807664 0.79431818177308811 2.0483096413232862 143 143 154 1.2136807013548327 26 185 35 243 20 149
6825 -0.23393018938807378 0.33660607086316557 2.1590915031808966 52 86 39 0.27009035084361599 60 225 20 155 52 131 33 208 19 158
6826 0.47046472869551498 0.78618485126253346 2.0691852569130798 144 176 120 0.067881744475150468 60 189 20 156
6827 -0.020657885433763137 0.57413826156806158 2.1144556755931165 47 87 48 0.16096537619532386 26 192 20 157 27 144
6828 -0.13974165179812317 0.50770202845269941 2.143347957752614 44 84 44 0.020948692920559529 60 238 20 167
6829 -0.030447111397621483 0.58117189329221774 2.1376340963202884 145 153 109 0.024644183194985292 60 235 20 172
6830 -0.20400302858854366 0.44275547131211884 2.1766911540464786 164 153 102 0.011431640122806393 60 243 20 175
6831 0.39462632845285323 0.82112753047927123 2.1462367647227989 57 94 45 0.06795643737043619 60 230 20 188
6834 0.4544744005082198 0.39393300765004802 2.3622416241721855 137 142 102 0.1397433333088037 7 171 20 203
6835 0.39028283754252124 1.1209166548568259 2.0972502950282692 157 155 76 0.7921019184146858 79 610 20 207 65 872 52 969 19 1462 41 838 9 1134 94 681
6837 0.065406531232062901 0.69507149710949712 2.2659737234573334 65 93 57 0.065647486389123239 26 266 20 223
6838 0.083274139304568118 0.69718410016642851 2.2675084411542477 167 167 122 0.11867194837736343 26 268 60 274 20 225
6840 -0.26127276482154382 0.41611051627703555 2.350773360456663 36 77 44 0.16837522123793378 60 302 20 233 27 217
6844 0.30260612546572879 0.85918209115443211 2.3124918058103781 42 76 35 0.10327879582912239 26 305 20 254
6846 0.095015951531497694 0.26799901062381254 2.5185866214304435 44 88 47 2.5043581625588489 7 175 20 264
6849 0.44201218902610645 0.89961686742303637 2.3847454668242185 44 81 43 0.098100462654062096 26 332 20 281 27 267
6850 0.36005845085337068 0.87412419730707169 2.440944441148853 62 107 66 0.15516719193421641 26 342 20 291 27 277
6851 0.027310702470635096 0.66953185423647144 2.5134569343937461 133 133 144 0.19048257511112951 26 346 20 298
6852 -0.32462423970950233 1.4805513741098415 2.4682761372716473 125 200 99 0.089932414792889853 26 433 20 396
6853 -0.32462423970950233 1.4805513741098415 2.4682761372716473 125 200 99 0.089932414792889853 26 434 20 397
6854 -0.20093160351014383 1.6900733665332703 2.4506315651750601 255 254 154 0.038901015649736984 26 455 20 421
6855 -0.41569190003848516 1.5844637265836843 2.461617779808595 113 186 94 0.018602763986113293 26 457 20 426
6856 -0.19592532532983484 1.7168870219690264 2.4486311010008119 113 184 97 0.031676980748701941 26 460 20 431
6857 -0.64439055614781782 1.450183162324858 2.5131237367955603 135 190 94 0.10120898857509622 60 560 20 443
6858 -0.39632590740626883 1.6776640762004851 2.4619052945358848 106 178 93 0.069037822273752547 85 421 20 448
6859 -0.42190604398428899 0.91504206828123835 2.8524023905761191 254 244 139 0.077638768098387073 60 464 20 459
6860 -0.25218328145194507 1.7877344585351609 2.4589284521851917 255 254 164 0.15600080279431811 26 484 20 468
6862 -0.091494329402216024 1.8952408626445187 2.4718458193515662 98 176 96 0.020459102995696012 26 501 20 478
6863 -0.46647156199700307 1.7232594083844415 2.476255908564744 112 171 92 0.10018573615560089 26 500 20 481
6864 -0.46490616834548648 1.7219322567479101 2.4771475698609273 112 171 92 0.19380004478014098 60 589 85 456 20 482
6865 -0.44530424122901041 1.7421154316306597 2.4720000363909302 254 251 154 0.04009454313852312 26 1107 20 483
6866 -0.094311372981424987 1.9453185456763333 2.5027701820973762 56 89 47 0.17077979029972212 26 528 20 501 27 1007 80 322
6867 -0.093793368859144258 1.9445211778103577 2.5029742709764951 56 89 47 0.09758263056827042 26 529 20 502 27 1006
6868 -0.21370033224998669 1.911393216298108 2.5065812715085145 48 77 40 0.10742996508212771 26 1131 20 511 27 1004
6869 -0.21370033224998669 1.911393216298108 2.5065812715085145 48 77 40 0.10742996508212771 26 1132 20 512 27 1005
6870 -0.28066263049644219 1.8927426418008619 2.5049660659072051 48 75 40 0.045209160882043471 26 541 20 518 27 999
6871 -0.22622747296903684 1.9226530286297574 2.5319312833171295 50 84 43 0.1582773707408115 26 558 20 539 27 1022 7 566
